# .PCD v0.7 - Point Cloud Data file format
VERSION 0.7
FIELDS x y z
SIZE 4 4 4
TYPE F F F
COUNT 1 1 1
WIDTH 1599
HEIGHT 1
VIEWPOINT 0 0 0 1 0 0 0
POINTS 1599
DATA ascii
4.5521712 4.8029413 1.5407944
4.5394411 4.8007512 1.6831648
4.531764 4.7704816 1.8040407
4.5341763 4.6840363 1.8820724
4.5265002 4.6537838 2.0029187
4.5238681 4.5954342 2.1023595
4.5161934 4.5652075 2.2231612
4.5135617 4.5068669 2.3225873
4.5109301 4.4485259 2.4220133
4.5032573 4.4183202 2.5427499
4.5056667 4.3318453 2.6208637
4.5030351 4.2735057 2.720288
4.4953632 4.2433233 2.8409834
4.4876952 4.2131457 2.9616413
4.4850645 4.1548209 3.0610392
4.4824333 4.0964975 3.1604359
4.4798026 4.0381746 3.2598324
4.4822068 3.9516628 3.3380394
4.4795756 3.8933306 3.4374506
4.47191 3.8632026 3.5580232
4.4642472 3.833092 3.6785679
4.4666481 3.7465549 3.7568178
4.4640169 3.6882319 3.8562143
4.4613862 3.6299071 3.9556122
4.4587555 3.5715837 4.0550084
4.4510946 3.5415139 4.1754823
4.4484639 3.4831994 4.2748642
4.4357762 3.4813888 4.416317
4.4331465 3.4230895 4.5156727
4.4305167 3.3647907 4.615026
4.4202332 3.2764733 4.8347082
4.4226274 3.1898937 4.9130907
4.4250236 3.1032994 4.9914989
4.4123449 3.1016014 5.1327305
4.4489083 5.9006124 0.073781013
4.4462771 5.8422899 0.17317557
4.4486761 5.7560353 0.25094271
4.451077 5.6697502 0.32873178
4.4534798 5.5834384 0.40653634
4.4458137 5.5530705 0.5275805
4.443182 5.4947305 0.62700498
4.4405503 5.4363899 0.72643113
4.4379187 5.3780489 0.82585704
4.435287 5.3197083 0.92528307
4.4276257 5.2893767 1.0462337
4.4300237 5.2030272 1.1241333
4.4324236 5.1166482 1.2020531
4.4348226 5.0302534 1.2799989
4.442255 4.9157629 1.3364756
4.4496927 4.8012009 1.3929839
4.4470592 4.7428112 1.492494
4.4293232 4.7687325 1.656368
4.4216609 4.7384677 1.7772671
4.424058 4.6520014 1.8553039
4.4163957 4.6217532 1.9761751
4.4137635 4.563396 2.075629
4.4061031 4.5331602 2.1964478
4.403471 4.4748116 2.295887
4.4008393 4.4164634 2.3953261
4.3881569 4.4143953 2.5374002
4.3905487 4.3279204 2.6155136
4.3929429 4.2414165 2.6936452
4.3852854 4.2112393 2.8143637
4.3776317 4.1810665 2.935045
4.3750005 4.1227341 3.0344563
4.3723693 4.0644021 3.1338673
4.3647194 4.0342503 3.2544837
4.3671064 3.9477377 3.3326898
4.3694959 3.8611965 3.4109168
4.3618441 3.8310735 3.5315125
4.3541956 3.8009546 3.6520729
4.3515649 3.742631 3.7514691
4.3489337 3.6843073 3.8508654
4.346303 3.6259832 3.9502635
4.3436723 3.5676596 4.0496597
4.3360262 3.5375907 4.1701345
4.3333955 3.4792762 4.2695165
4.3207407 3.4774661 4.4109707
4.3181109 3.4191668 4.5103264
4.3154807 3.3608685 4.6096792
4.3078437 3.330842 4.7300224
4.3052144 3.2725515 4.8293629
4.3075914 3.1859715 4.9077439
4.3099709 3.0993764 4.9861517
4.2973261 3.0976791 5.1273842
4.2946968 3.0393884 5.2267246
4.3338246 5.8966885 0.068432331
4.3311939 5.838366 0.16782761
4.3335757 5.752111 0.24559355
4.3409791 5.6378622 0.30174446
4.338347 5.5795131 0.40118527
4.3357148 5.521163 0.50062633
4.3380985 5.4348259 0.57847285
4.3354664 5.3764691 0.67792511
4.337851 5.2900949 0.75580502
4.3302016 5.2597547 0.87683296
4.3225546 5.2294207 0.99782228
4.3249369 5.1430411 1.0757393
4.3273201 5.056633 1.1536766
4.3246875 4.9982667 1.2531453
4.3320909 4.8837423 1.3096169
4.3394985 4.7691598 1.3661276
4.3368645 4.7107611 1.4656525
4.3191729 4.7367134 1.62957
4.3165398 4.67834 1.7290519
4.318923 4.5918317 1.8070992
4.3112736 4.5615926 1.9280158
4.3086405 4.5032187 2.0274975
4.3009925 4.4729781 2.148356
4.2933483 4.4427562 2.2691834
4.2907157 4.3843989 2.3686373
4.2780647 4.3823357 2.5107374
4.2854509 4.2676849 2.5675457
4.2828183 4.2093267 2.6669993
4.275178 4.1791425 2.7877336
4.2675381 4.1489735 2.9084396
4.2699137 4.0624452 2.9866121
4.2622747 4.0322924 3.1072898
4.2596431 3.9739525 3.2067142
4.2570114 3.9156117 3.3061404
4.2593856 3.8290498 3.3843703
4.2517486 3.7989311 3.5049906
4.244112 3.7688165 3.6255741
4.2414808 3.7104845 3.7249851
4.2338505 3.6803839 3.8455169
4.236218 3.5938206 3.9238076
4.2285886 3.5637355 4.0443115
4.2209578 3.5336671 4.1647863
4.218327 3.4753523 4.2641683
4.2057071 3.4735446 4.4056244
4.2030773 3.4152446 4.5049801
4.2004476 3.3569465 4.6043334
4.1928253 3.32692 4.7246771
4.185204 3.2968979 4.8449831
4.1875663 3.2103386 4.923358
4.1899281 3.1237509 5.0017509
4.1773171 3.1220512 5.1429615
4.179678 3.0354669 5.2213793
4.1770487 2.9771762 5.3207197
4.1744194 2.9188852 5.4200602
4.218739 5.8927646 0.063083887
4.2211065 5.8065181 0.14083266
4.223475 5.7202425 0.21860409
4.2258439 5.6339369 0.29639339
4.2282138 5.5476136 0.37421298
4.2305841 5.4612646 0.45204782
4.232954 5.374898 0.52991164
4.2303205 5.3165236 0.62939572
4.2326922 5.2301064 0.70728588
4.2300587 5.1717248 0.80678296
4.2224212 5.1414022 0.92784142
4.2297969 5.0269065 0.98423183
4.2271628 4.9685154 1.0837433
4.2245288 4.9101248 1.183253
4.2269006 4.8236294 1.2612476
4.2342792 4.708993 1.3177567
4.2316442 4.650578 1.4173094
4.2139935 4.6765642 1.5812943
4.206357 4.646286 1.7022483
4.2087255 4.559783 1.7803156
4.2060919 4.5013928 1.8798256
4.1984563 4.4711399 2.000737
4.1908231 4.4409175 2.1216259
4.18819 4.382544 2.2211082
4.1855569 4.3241701 2.32059
4.1729336 4.3221145 2.4627395
4.1752958 4.2355905 2.540874
4.1776576 4.1490479 2.6190374
4.1700301 4.1188593 2.7398098
4.1624041 4.0886869 2.8605537
4.1647649 4.0021286 2.9387455
4.1571393 3.9719727 3.0594618
4.1495152 3.9418213 3.180141
4.146883 3.8834724 3.2795801
4.1492419 3.7969003 3.3578234
4.1416187 3.7667742 3.4784598
4.1339989 3.7366652 3.5990667
4.1313672 3.6783252 3.6984911
4.1237488 3.6482284 3.8190475
4.1261044 3.561645 3.8973417
4.1184864 3.531564 4.0178699
4.1108723 3.501487 4.1383605
4.1082411 3.4431634 4.2377567
4.0956492 3.4413736 4.3792448
4.093019 3.3830657 4.4786148
4.0903893 3.3247588 4.5779834
4.0827818 3.2947242 4.6983423
4.0751772 3.264708 4.8186717
4.0775223 3.1781266 4.8970509
4.0748925 3.1198282 4.9964046
4.0573435 3.1464117 5.1585331
4.0596867 3.0598481 5.2369423
4.0570579 3.001565 5.3362699
4.0544286 2.9432831 5.4355955
4.0468287 2.9133155 5.5557814
4.1086369 5.8609257 0.036072254
4.110991 5.7746563 0.11382937
4.1133432 5.6883583 0.19160533
4.1206846 5.5740681 0.24776125
4.1280289 5.4597073 0.30394697
4.1303854 5.3733196 0.38181615
4.1277518 5.3149295 0.48132598
4.1301093 5.2284918 0.55921912
4.1324649 5.1420379 0.63714039
4.1298304 5.0836301 0.73667979
4.1271958 5.0252242 0.83621776
4.1245613 4.9668164 0.93575728
4.1219268 4.9084101 1.035295
4.1192918 4.8500032 1.1348345
4.1216497 4.7634783 1.212847
4.1240067 4.6769252 1.2908783
4.1213713 4.6185007 1.3904455
4.1087532 4.6163754 1.5329893
4.1011319 4.5861053 1.6539907
4.1034837 4.4995604 1.7320683
4.0958629 4.4693079 1.8530401
4.0932288 4.4109097 1.952565
4.0856094 4.3806834 2.0734923
4.0829754 4.3222933 2.173002
4.0853257 4.235713 2.2511389
4.0677414 4.2618694 2.4147189
4.0700908 4.1753011 2.4928648
4.0674577 4.11692 2.5923598
4.0648241 4.0585375 2.6918566
4.057209 4.0283737 2.8126481
4.059557 3.9417725 2.8908501
4.0519423 3.9116266 3.0116119
4.0443339 3.8814707 3.132329
4.0417013 3.8231053 3.2317977
4.0440431 3.7365055 3.3100579
4.0364356 3.7063744 3.4307339
4.0288267 3.6762617 3.5513783
4.0261946 3.6179042 3.6508322
4.01859 3.5878031 3.7714264
4.0159583 3.5294547 3.8708658
4.0083566 3.4993782 3.9914174
4.0007544 3.4693065 4.1119313
3.9981232 3.410974 4.2113428
3.9905272 3.3809161 4.3318048
3.9829316 3.3508737 4.452239
3.9803014 3.2925582 4.5516229
3.9727077 3.2625289 4.6720047
3.9651179 3.2325039 4.7923498
3.9674478 3.145915 4.8707414
3.9648175 3.0876076 4.9701099
3.9473124 3.1142092 5.1322718
3.9496408 3.0276232 5.2106881
3.947011 2.9693327 5.3100286
3.9443817 2.9110422 5.409369
3.9367962 2.8810802 5.5295763
3.9985051 5.829071 0.0090548992
4.0008421 5.7427821 0.086813211
4.0131211 5.6005378 0.12127781
4.0204368 5.4861727 0.17743826
4.0277567 5.3717375 0.23362803
4.0251222 5.3133302 0.33316755
4.0224872 5.2549229 0.43270707
4.0248294 5.1684561 0.51061809
4.0271735 5.0819602 0.58854949
4.024538 5.0235362 0.68811738
4.0219026 4.9651122 0.78768504
4.0192671 4.9066892 0.88725245
4.0166316 4.8482656 0.98681796
4.0139961 4.7898417 1.0863856
4.0113606 4.7314186 1.1859533
4.0137038 4.6448555 1.2639979
4.0110679 4.5864239 1.3635786
3.9984789 4.5843015 1.5061494
3.9958439 4.5258861 1.6057022
3.9932089 4.4674711 1.7052548
3.9856019 4.4372239 1.8262498
3.9829674 4.3788166 1.9257894
3.9753628 4.3485813 2.0467339
3.9727287 4.2901831 2.1462588
3.9700942 4.2317839 2.2457836
3.9575253 4.2297559 2.3880143
3.959857 4.1431937 2.4661787
3.9572229 4.0848026 2.56569
3.9545889 4.026412 2.6652
3.9519553 3.9680226 2.7647099
3.9493213 3.9096313 2.8642213
3.9417243 3.8794637 2.9849913
3.9390907 3.8210812 3.0844879
3.9364572 3.7626994 3.1839848
3.9338236 3.704318 3.2834799
3.9262276 3.6742043 3.4041865
3.9186354 3.6440821 3.5248485
3.9160028 3.5857174 3.6243157
3.908412 3.5556204 3.7449346
3.910737 3.4689867 3.8232515
3.9031472 3.4389057 3.9438422
3.8955607 3.4088304 4.064395
3.8978825 3.322192 4.1427488
3.885344 3.3204315 4.2843432
3.8728108 3.3186679 4.4258547
3.8701801 3.2603445 4.5252504
3.8626027 3.2303195 4.6456561
3.859972 3.172004 4.7450395
3.8573413 3.1136885 4.8444228
3.8547111 3.0553722 4.9438057
3.8372512 3.0819921 5.1060023
3.8395634 2.9953856 5.1844211
3.8369336 2.9370868 5.2837763
3.8343039 2.878788 5.3831301
3.8267336 2.8488307 5.5033627
3.8191652 2.8188758 5.623559
3.9005718 5.6549835 0.016444445
3.912816 5.5126266 0.050886154
3.9151421 5.4262152 0.12873173
3.9224334 5.3117237 0.18492389
3.9197979 5.2533011 0.28448963
3.9221277 5.1668129 0.36240554
3.9194918 5.1083822 0.46198618
3.9168558 5.0499487 0.56156838
3.9142199 4.9915171 0.66114938
3.9115844 4.933085 0.76073146
3.9089489 4.8746533 0.86031199
3.9063129 4.8162212 0.9598943
3.903677 4.7577882 1.0594764
3.9010415 4.6993566 1.1590571
3.8984056 4.6409245 1.2586393
3.9007311 4.5543327 1.3367025
3.8881731 4.5522156 1.4792972
3.8855381 4.4937916 1.5788648
3.8829026 4.4353681 1.6784322
3.8753095 4.4051256 1.7994503
3.8677182 4.3748865 1.9204329
3.8601308 4.3446527 2.0413785
3.8574963 4.2862539 2.1409032
3.8598146 4.1996655 2.2190497
3.8423257 4.2258282 2.3826604
3.8446422 4.1392651 2.460824
3.8420081 4.0808735 2.5603354
3.8443251 3.9942608 2.6385248
3.83674 3.9640944 2.7593553
3.8390565 3.8774633 2.8375742
3.8314724 3.8473127 2.9583766
3.8238912 3.817153 3.079134
3.8212576 3.7587709 3.1786306
3.818624 3.7003896 3.2781258
3.8159904 3.6420071 3.3776226
3.8133564 3.5836244 3.4771192
3.8107228 3.5252423 3.5766158
3.8031454 3.495156 3.6972792
3.8054562 3.4084787 3.7756076
3.7978792 3.3784077 3.8962445
3.7853646 3.3766234 4.0379429
3.792613 3.2616603 4.0952082
3.7800999 3.2599089 4.2368507
3.7675948 3.2581668 4.378418
3.7649632 3.1998262 4.4778438
3.752466 3.1980968 4.6192985
3.749835 3.1397727 4.7186966
3.7472043 3.081449 4.8180933
3.7445731 3.0231245 4.917491
3.7320852 3.0214553 5.0587845
3.729455 2.9631472 5.1581545
3.7268248 2.90484 5.2575226
3.7241945 2.8465328 5.3568916
3.71664 2.8165665 5.477139
3.7090855 2.7866182 5.5973577
3.8074756 5.4526734 0.002137661
3.8097897 5.3662181 0.079997063
3.8121023 5.2797475 0.15788293
3.8094668 5.2213144 0.25746489
3.811779 5.1348052 0.3353858
3.8091431 5.076365 0.43498111
3.8114557 4.9898314 0.51294279
3.8038707 4.9594841 0.63417184
3.8012342 4.9010429 0.73376894
3.7985983 4.8426027 0.83336437
3.7959619 4.784162 0.93295968
3.7933254 4.7257223 1.0325552
3.7906895 4.6672821 1.1321507
3.7880535 4.6088419 1.2317461
3.7854171 4.5504003 1.3313429
3.7778373 4.5201287 1.4524435
3.7702587 4.489861 1.5735071
3.7676234 4.4314375 1.6730744
3.7649879 4.3730135 1.772642
3.7574103 4.3427806 1.893646
3.7498364 4.3125501 2.0146165
3.7472019 4.2541437 2.1141543
3.7445674 4.1957364 2.2136939
3.7320614 4.1937265 2.3559594
3.7343616 4.1071281 2.4341216
3.7317271 4.0487309 2.5336447
3.7290931 3.9903316 2.6331694
3.7215257 3.9601653 2.7540004
3.7238245 3.8735347 2.8322191
3.7113271 3.8716078 2.9742835
3.713624 3.7849941 3.0525317
3.7060599 3.7548428 3.1732769
3.7083564 3.6682129 3.2515531
3.7057223 3.609823 3.351063
3.7030883 3.5514321 3.4505744
3.7004545 3.4930418 3.5500841
3.6928921 3.4629335 3.6707573
3.6951866 3.3762605 3.7491057
3.6876249 3.346169 3.8697507
3.6751394 3.3444023 4.0114822
3.6823578 3.2294044 4.0687423
3.6698737 3.2276711 4.2104182
3.6573973 3.2259336 4.3520103
3.6547654 3.1675844 4.4514513
3.6472158 3.1375599 4.5719194
3.639667 3.1075401 4.6923504
3.6370358 3.0492082 4.7917614
3.6294894 3.0192008 4.9121428
3.6170325 3.0175319 5.0534372
3.6144023 2.9592237 5.1528072
3.6117721 2.9009166 5.2521753
3.6091418 2.8426099 5.3515439
3.601604 2.8126445 5.4717922
3.5989742 2.7543449 5.5711479
3.5865316 2.7527518 5.7121949
3.6994393 5.3342466 0.052944899
3.7017374 5.2477541 0.13083529
3.6991012 5.1893139 0.23043084
3.696465 5.1308737 0.33002627
3.6987619 5.0443478 0.40797257
3.7010603 4.9577932 0.48593926
3.6934886 4.9274502 0.60719287
3.6908522 4.8690023 0.70680153
3.6832843 4.8386712 0.82800508
3.6806483 4.7802305 0.92760038
3.6829424 4.693655 1.0056322
3.6753759 4.6633501 1.1267912
3.6776695 4.5767579 1.2048509
3.6750329 4.5183096 1.3044615
3.6625385 4.5161977 1.4470851
3.6599026 4.4577656 1.5466654
3.6572669 4.3993335 1.646248
3.6497059 4.3690825 1.7672839
3.6421461 4.33885 1.8882892
3.6395111 4.2804346 1.9878434
3.6368761 4.2220192 2.0873961
3.6293182 4.1918063 2.2083375
3.6217639 4.1615982 2.3292415
3.6191297 4.1031995 2.4287663
3.6214142 4.0165854 2.5069542
3.6138611 3.9864028 2.6278138
3.6112268 3.9280038 2.7273383
3.6085925 3.8696053 2.8268633
3.6010408 3.8394558 2.9476671
3.598407 3.7810659 3.0471771
3.5957732 3.7226746 3.1466885
3.5931392 3.6642847 3.2461984
3.5905051 3.6058943 3.3457084
3.5927868 3.5192125 3.4240112
3.5901527 3.4608135 3.523536
3.5826035 3.4307222 3.6442413
3.5848842 3.3440161 3.7225852
3.5773358 3.3139424 3.8432608
3.5697918 3.2838593 3.9638915
3.572068 3.1971607 4.0422821
3.5645247 3.1670942 4.1628852
3.5520754 3.1653781 4.3045349
3.5494428 3.1070137 4.4040017
3.5370002 3.1053095 4.5455394
3.5294662 3.075295 4.6659937
3.5268342 3.0169539 4.76542
3.5242028 2.9586143 4.8648443
3.5068779 2.9852872 5.0271435
3.5042472 2.9269722 5.1265273
3.5016167 2.8686562 5.2259102
3.4940908 2.8386869 5.3461971
3.4914608 2.7803795 5.4455652
3.4888306 2.7220726 5.5449333
3.4813087 2.6921239 5.6651554
3.5890598 5.3022623 0.025881052
3.5962615 5.1876898 0.082079887
3.5887058 5.1573133 0.20339227
3.5860691 5.0988636 0.30300426
3.5883508 5.0123177 0.3809551
3.5906329 4.9257421 0.45892477
3.5781593 4.9235177 0.60183299
3.5755229 4.8650699 0.70144165
3.5728865 4.8066211 0.80105197
3.57025 4.7481718 0.90066195
3.5676134 4.689723 1.0002723
3.5649767 4.6312742 1.0998825
3.5623403 4.5728264 1.1994911
3.5597038 4.5143776 1.2991014
3.5521538 4.4840965 1.4202197
3.544606 4.4538345 1.5413072
3.5419703 4.395402 1.6408892
3.5393343 4.3369703 1.7404699
3.5317893 4.3067298 1.8614924
3.5242448 4.276504 1.9824861
3.5216098 4.2180891 2.0820389
3.5189748 4.1596737 2.1815915
3.5065322 4.1576691 2.3238862
3.5088 4.071063 2.4020584
3.5061655 4.0126553 2.5015979
3.5035307 3.9542489 2.6011357
3.4959948 3.9240749 2.721983
3.4933605 3.8656764 2.8215077
3.485826 3.8355272 2.9423122
3.4831922 3.7771368 3.041822
3.4805584 3.7187464 3.1413341
3.4828234 3.6320815 3.2196064
3.4801893 3.5736825 3.3191314
3.4775548 3.5152836 3.4186559
3.4749207 3.4568851 3.5181806
3.4673889 3.4267936 3.6388865
3.4696522 3.3400877 3.7172301
3.4670179 3.2816887 3.8167548
3.4545922 3.2799313 3.9585376
3.4617491 3.1648912 4.0158038
3.4542193 3.1348426 4.1364374
3.4466918 3.1047854 4.2570267
3.4391661 3.0747566 4.3775945
3.431643 3.0447206 4.4981179
3.4241223 3.0147021 4.6186104
3.42149 2.9563446 4.7180638
3.4188576 2.8979871 4.8175178
3.4015722 2.9246945 4.9798851
3.3940592 2.8947055 5.1002378
3.391428 2.836381 5.199636
3.3887973 2.7780573 5.2990322
3.3812876 2.7481017 5.4193273
3.3786573 2.6897862 5.5187106
3.3760266 2.6314702 5.6180935
3.3685193 2.6015358 5.7383232
3.3846362 2.1393445 6.1104164
3.4809136 5.1837573 0.076719284
3.4782767 5.1252995 0.17634416
3.4707379 5.0949316 0.2976439
3.4730029 5.0083842 0.37559414
3.470366 4.9499278 0.4752177
3.4628286 4.9195852 0.5964731
3.460192 4.8611369 0.69608152
3.4575555 4.8026886 0.79569173
3.4500208 4.7723675 0.91688204
3.4473844 4.7139268 1.0164772
3.4447484 4.6554866 1.1160727
3.4470093 4.5688939 1.1941309
3.439476 4.5386057 1.3152654
3.4319432 4.5083351 1.4363679
3.4293075 4.449903 1.5359485
3.4266715 4.3914709 1.6355307
3.4191432 4.3612218 1.7565686
3.4165077 4.3027983 1.8561342
3.4089804 4.2725739 1.9771292
3.4063454 4.2141585 2.0766816
3.4037104 4.1557431 2.1762345
3.3913002 4.1537404 2.3185306
3.3935528 4.0671334 2.3967023
3.390918 4.0087256 2.4962416
3.3882833 3.9503193 2.5957794
3.3807631 3.920146 2.7166276
3.3781288 3.861747 2.8161521
3.3706114 3.8315988 2.9369576
3.3679774 3.7732091 3.0364678
3.3653436 3.7148178 3.1359792
3.3675916 3.6281526 3.2142513
3.3649573 3.5697536 3.313776
3.362323 3.5113552 3.4133005
3.3596888 3.4529562 3.5128253
3.3521738 3.4228654 3.6335318
3.3544202 3.3361583 3.7118745
3.3517861 3.2777598 3.811399
3.3442721 3.2476943 3.9320631
3.3465176 3.1609619 4.0104485
3.343883 3.1025634 4.109973
3.3363705 3.0725231 4.2305942
3.3337367 3.0141335 4.3301039
3.3262253 2.9840925 4.4506655
3.3187175 2.9540823 4.5712051
3.3160841 2.895709 4.6706872
3.3183246 2.8089461 4.7491541
3.2962062 2.8640633 4.9325957
3.2887058 2.8340826 5.0529957
3.2909422 2.747366 5.131474
3.2785778 2.7457736 5.2727699
3.2710829 2.7158098 5.3930798
3.2733152 2.6291091 5.4715919
3.265821 2.5991621 5.5918741
3.2631903 2.5408382 5.6912708
3.2433498 2.5093827 5.9525266
3.2694862 2.1354184 6.1050649
3.3058205 1.8490007 6.0379605
3.3655674 5.1798244 0.071358442
3.3629305 5.1213665 0.17098331
3.3602936 5.0629086 0.27060831
3.3576567 5.0044518 0.3702333
3.3550196 4.9459953 0.46985686
3.3474977 4.9156532 0.59111309
3.3399792 4.8853159 0.71233177
3.3373427 4.8268757 0.8119272
3.3347068 4.768435 0.91152239
3.3320706 4.7099953 1.0111181
3.3294344 4.6515546 1.1107132
3.3267984 4.5931144 1.2103087
3.324162 4.5346732 1.3099058
3.3166466 4.5044041 1.4310095
3.3140109 4.445972 1.5305899
3.3113751 4.3875399 1.6301724
3.3038616 4.3572907 1.7512107
3.3012264 4.2988682 1.8507767
3.2937162 4.2686434 1.9717722
3.2910814 4.2102289 2.0713248
3.2884462 4.1518135 2.1708777
3.2809384 4.1216111 2.2918062
3.2831759 4.0349822 2.3699846
3.2805409 3.9765668 2.469537
3.2779059 3.9181516 2.5690897
3.2703996 3.8879824 2.6899626
3.267765 3.8295753 2.7895002
3.2602625 3.7994199 2.9103217
3.2576282 3.7410209 3.0098462
3.2549939 3.682622 3.1093709
3.2523596 3.6242232 3.2088957
3.2545919 3.5375404 3.2871945
3.2519572 3.4791331 3.386734
3.2493224 3.4207253 3.4862735
3.2418227 3.3906283 3.6069942
3.2440534 3.3039119 3.6853509
3.2365539 3.2738304 3.8060436
3.2290556 3.2437656 3.9267082
3.2361493 3.1286907 3.9839678
3.228651 3.098635 4.1046181
3.2260168 3.040236 4.2041426
3.2233825 2.981837 4.3036671
3.2207484 2.9234385 4.4031916
3.2083941 2.9217823 4.5448084
3.2106185 2.8350334 4.6232805
3.2079844 2.776643 4.7227907
3.1907792 2.803406 4.885283
3.1881466 2.7450404 4.9847522
3.1855137 2.6866753 5.084219
3.1683249 2.7134767 5.2464957
3.1608458 2.683517 5.3668318
3.1630616 2.596796 5.4453459
3.16043 2.538455 5.5447721
3.1577983 2.4801152 5.6441965
3.1379986 2.4486766 5.9055462
3.1499033 2.3050935 5.9424725
3.1472716 2.2467527 6.0418987
3.154336 2.1314929 6.0997133
3.1808214 1.9021428 6.0742826
3.2502193 5.1758909 0.065997601
3.2475824 5.1174335 0.16562271
3.2400763 5.0870662 0.28692341
3.2374399 5.0286183 0.38653207
3.2348032 4.9701691 0.4861424
3.2272997 4.9398255 0.6073755
3.2246633 4.8813839 0.70697236
3.2171626 4.8510656 0.82816088
3.2145269 4.7926331 0.92774284
3.2167549 4.7060633 1.0057586
3.2141187 4.6476231 1.1053541
3.2114825 4.5891829 1.2049495
3.2088463 4.5307417 1.3045466
3.2013478 4.5004725 1.4256506
3.1938512 4.4702077 1.5467181
3.1912158 4.4117837 1.6462855
3.1885805 4.3533602 1.7458529
3.185945 4.2949367 1.8454187
3.1784515 4.2647133 1.9664152
3.1806741 4.1780891 2.0445535
3.1780388 4.1196651 2.1441209
3.1656911 4.1176815 2.2864501
3.1679115 4.0310526 2.3646276
3.1652765 3.9726372 2.4641802
3.1626415 3.9142215 2.5637326
3.1600065 3.8558064 2.6632853
3.1573715 3.7973902 2.7628396
3.1498833 3.7672391 2.8836839
3.1423965 3.7370915 3.0044909
3.144614 3.6504254 3.0827613
3.1419792 3.5920174 3.1823003
3.1393447 3.5336108 3.2818384
3.1415615 3.4468985 3.360157
3.1340752 3.4167967 3.4809177
3.1265907 3.3866987 3.6016386
3.1288061 3.2999825 3.6799948
3.1213222 3.2699018 3.8006883
3.1186879 3.211503 3.9002128
3.1209021 3.1247609 3.9786115
3.1182673 3.0663543 4.0781493
3.1156325 3.007947 4.1776886
3.112998 2.9495401 4.2772264
3.1103635 2.8911333 4.3767662
3.1028821 2.8611102 4.4973612
3.1002479 2.8027115 4.5968857
3.1024594 2.7159119 4.6753831
3.0852938 2.7427084 4.8379431
3.0875018 2.6559339 4.9164572
3.0800266 2.6259446 5.0369349
3.0580425 2.6811662 5.220212
3.0457454 2.6795921 5.3614821
3.0527785 2.5644681 5.4190912
3.0501466 2.5061193 5.5185308
3.0475144 2.4477708 5.6179695
3.0277598 2.4163427 5.8793678
3.0396183 2.2727239 5.9162893
3.0369864 2.2143755 6.015728
3.0343542 2.1560268 6.1151676
3.0607338 1.9267311 6.0897541
3.1397285 5.1438694 0.038926125
3.132236 5.1135006 0.16026187
3.1295991 5.0550432 0.25988674
3.1269622 4.9965854 0.35951149
3.1243253 4.9381289 0.45913506
3.1168358 4.9077878 0.58039236
3.1093497 4.8774524 0.70161307
3.1067133 4.8190117 0.80120826
3.1040773 4.760572 0.90080392
3.1014411 4.7021313 1.0003992
3.103653 4.6155448 1.078442
3.1010165 4.5570965 1.1780504
3.0983801 4.4986477 1.2776608
3.0908966 4.4683695 1.3987825
3.0834155 4.4381089 1.5198728
3.0807796 4.3796768 1.6194552
3.0781438 4.3212452 1.7190357
3.0755081 4.2628126 1.8186181
3.0728722 4.2043815 1.9181987
3.0702367 4.1459484 2.0177808
3.062757 4.1157346 2.1387634
3.0552807 4.0855374 2.2597158
3.0574863 3.9988868 2.337898
3.0548508 3.9404631 2.4374657
3.0522156 3.8820398 2.5370333
3.0495801 3.8236156 2.6366005
3.0469446 3.7651927 2.7361662
3.0394704 3.7350447 2.8570352
3.0368354 3.67663 2.9565878
3.0342004 3.6182148 3.0561404
3.0315652 3.5597987 3.155695
3.0289304 3.5013835 3.2552474
3.0262954 3.4429679 3.3547997
3.018826 3.4128664 3.4755611
3.0161915 3.3544598 3.575099
3.013557 3.2960522 3.6746383
3.0109222 3.2376461 3.7741761
3.0034556 3.2075739 3.8948574
3.0056529 3.1208305 3.9732552
3.0030181 3.0624247 4.0727925
3.0003834 3.0040171 4.1723323
3.0025799 2.9172301 4.2507772
2.9999449 2.8588138 4.3503313
2.9924796 2.8287959 4.4709492
2.9898448 2.7703896 4.570487
2.9920397 2.683568 4.6489892
2.9797473 2.6819854 4.7905798
2.977113 2.6235862 4.8901043
2.9696512 2.5936151 5.0106125
2.9477296 2.6488543 5.1939254
2.9354599 2.6472864 5.3352203
2.947283 2.5037243 5.3719187
2.9446502 2.4453597 5.471386
2.9244852 2.2687986 5.9109383
2.9218533 2.2104502 6.0103774
2.9144068 2.1805625 6.1306229
2.9358582 1.9798133 6.12604
2.9332247 1.9214311 6.2255368
3.0292068 5.111835 0.011841536
3.021728 5.0814705 0.13320255
3.0142512 5.0511103 0.25452602
3.0164533 4.96454 0.332479
3.0138159 4.9060745 0.43211722
3.0063405 4.8757386 0.55339742
2.9988704 4.8454075 0.67464101
2.9962339 4.7869592 0.77425146
2.9887636 4.75664 0.89544451
2.9909606 4.6700606 0.97347164
2.9883242 4.6116118 1.0730819
2.990519 4.5249958 1.1511426
2.9878821 4.4665394 1.250766
2.9804144 4.4362659 1.3719108
2.9729464 4.4059973 1.4930186
2.9703102 4.3475575 1.5926142
2.9676743 4.2891169 1.6922092
2.9650381 4.2306771 1.791805
2.9624019 4.1722355 1.8914018
2.9597657 4.1137953 1.9909972
2.9523025 4.0835862 2.1120028
2.9448404 4.0533805 2.2329729
2.942205 3.994956 2.3325403
2.9395695 3.9365323 2.4321077
2.9417591 3.849858 2.5103285
2.9342985 3.8196847 2.6312428
2.9316633 3.7612619 2.7308085
2.924206 3.7311151 2.8516784
2.921571 3.6726995 2.951231
2.9189358 3.6142843 3.0507834
2.9163008 3.5558681 3.1503377
2.9136658 3.4974532 3.2498903
2.9110308 3.4390383 3.349443
2.9083958 3.3806226 3.4489956
2.9009423 3.3505306 3.5697427
2.8983078 3.2921231 3.6692822
2.8956733 3.2337165 3.76882
2.8930383 3.1753089 3.8683596
2.8952208 3.0885453 3.9467623
2.8925858 3.0301299 4.0463147
2.8899508 2.9717145 4.1458678
2.8873155 2.9132996 4.24542
2.8846807 2.8548832 4.3449745
2.8820455 2.7964687 4.4445271
2.8794105 2.7380533 4.5440798
2.8767755 2.6796384 4.6436324
2.8693266 2.649646 4.7642078
2.8715053 2.5628066 4.8427391
2.8640573 2.532831 4.9632869
2.8469961 2.5597062 5.1257238
2.8299475 2.5865705 5.2880278
2.8369226 2.4713826 5.3456497
2.8439007 2.3561244 5.4033003
2.8460755 2.2692645 5.4818969
2.8338284 2.267797 5.6232038
2.8119845 2.3232212 5.8061476
2.8189538 2.2079711 5.863905
2.8067203 2.2065246 6.0050259
2.7992909 2.1766369 6.1252728
2.8158574 2.0043933 6.1415052
2.8084226 1.9745088 6.2617779
2.913826 5.1079006 0.0064790249
2.9111884 5.0494275 0.10613036
2.9037275 5.0190716 0.22747874
2.9059129 4.9324794 0.30543625
2.9032755 4.8740063 0.40508783
2.8958154 4.8436751 0.52639329
2.8883576 4.8133478 0.64766157
2.8809028 4.7830262 0.76889133
2.8782663 4.7245774 0.86850154
2.8756297 4.6661282 0.96811163
2.872993 4.6076794 1.067722
2.8751731 4.5210633 1.1457818
2.8725359 4.4626064 1.2454053
2.8602691 4.460506 1.3880639
2.8576326 4.4020658 1.4876595
2.8549967 4.3436251 1.5872545
2.8523602 4.2851853 1.6868502
2.8497243 4.2267451 1.7864456
2.8470881 4.168304 1.8860426
2.8444519 4.1098633 1.9856379
2.8370056 4.0796547 2.1066444
2.8295608 4.0494499 2.2276154
2.8317339 3.9627903 2.3058071
2.8290982 3.9043584 2.4053895
2.8264623 3.8459263 2.5049698
2.8238266 3.7874939 2.6045523
2.8211908 3.7290623 2.7041328
2.8137484 3.6989076 2.8250182
2.8111131 3.6404841 2.9245858
2.8084776 3.5820601 3.0241532
2.8010368 3.5519381 3.1449807
2.7984018 3.4935231 3.2445335
2.7957668 3.4351077 3.3440859
2.7931318 3.3766928 3.4436388
2.7856953 3.3466003 3.5643864
2.7830606 3.2881932 3.6639256
2.780426 3.2297866 3.7634637
2.7777913 3.1713791 3.8630033
2.7799566 3.084615 3.9414051
2.7773213 3.0261998 4.0409575
2.7746863 2.9677844 4.1405106
2.7768526 2.8809748 4.2189608
2.7742171 2.8225508 4.3185282
2.7667813 2.7925382 4.4391699
2.7689464 2.7057042 4.5176611
2.7663112 2.6472805 4.617229
2.7588761 2.6172917 4.7378297
2.7610402 2.5304325 4.8163638
2.7536063 2.5004613 4.9369349
2.7365878 2.5273669 5.0994139
2.7147973 2.5826445 5.2826762
2.7265296 2.4390144 5.3193617
2.7286861 2.3521962 5.3979454
2.7356367 2.2368665 5.4556251
2.728209 2.2069373 5.576066
2.7064214 2.2624102 5.7590842
2.7085743 2.1755867 5.8377066
2.7011557 2.1456788 5.9580202
2.6889555 2.1442502 6.0991144
2.7054613 1.9719574 6.1153321
2.6884732 1.999074 6.2772121
3.1267574 -0.68632078 4.4616423
3.1240904 -0.74544418 4.5624022
2.7984457 5.1039667 0.0011165142
2.7910016 5.0736036 0.1224792
2.7883644 5.0151381 0.22211766
2.785727 4.9566727 0.32175565
2.7830896 4.8982077 0.42139411
2.7756481 4.8678732 0.54267585
2.7682085 4.837543 0.66392088
2.7655718 4.7790937 0.76353097
2.7581358 4.7487755 0.88472545
2.7554996 4.6903358 0.98432112
2.7576621 4.6037469 1.0623616
2.7550259 4.5452995 1.1619705
2.7523892 4.4868503 1.2615805
2.7449551 4.456574 1.3827045
2.7423189 4.3981333 1.4822998
2.7396827 4.3396935 1.5818954
2.7370465 4.2812529 1.6814907
2.7344103 4.2228127 1.781086
2.7317743 4.1643715 1.8806829
2.7291379 4.1059313 1.9802785
2.7217069 4.0757236 2.1012859
2.7142794 4.0455189 2.2222574
2.7116442 3.9870951 2.321825
2.7090087 3.9286711 2.4213922
2.7063732 3.8702469 2.5209596
2.7037377 3.8118234 2.6205273
2.7058923 3.725131 2.6987743
2.6936774 3.7232552 2.8409643
2.6958318 3.6365528 2.9192278
2.6931963 3.5781293 3.0187955
2.6857722 3.548008 3.1396236
2.6831372 3.489593 3.2391763
2.6805022 3.4311779 3.3387291
2.6826546 3.3444335 3.4170651
2.6752319 3.3143461 3.5378356
2.6725969 3.2559314 3.6373885
2.6699622 3.1975162 3.7369413
2.6625421 3.1674504 3.8576469
2.6694775 3.0523152 3.9149008
2.6668422 2.9938917 4.0144682
2.6642067 2.9354677 4.1140356
2.6663556 2.84865 4.1924963
2.6637197 2.7902174 4.2920785
2.6563005 2.7601972 4.4127359
2.6584482 2.6733537 4.4912415
2.6558123 2.6149216 4.5908217
2.6483941 2.5849261 4.7114382
2.6505408 2.4980569 4.7899866
2.6431236 2.4680777 4.910573
2.6357067 2.4381163 5.0311308
2.6091888 2.5219014 5.2354612
2.6161032 2.4066586 5.2930789
2.6230223 2.2913442 5.3507295
2.6299465 2.1759601 5.4084091
2.6225314 2.1460385 5.5288973
2.610343 2.1446085 5.6702352
2.6124837 2.0577152 5.7488861
2.6050744 2.027813 5.8692827
2.5833557 2.0833862 6.0521364
2.5998058 1.911015 6.0683317
2.9954252 -0.6025933 4.5201554
2.9976478 -0.69092679 4.5995808
2.6756361 5.0696692 0.11711764
2.6682107 5.0393109 0.2384429
2.6703615 4.9527388 0.31639385
2.6629369 4.9223971 0.43769169
2.6555138 4.8920584 0.55895197
2.6480942 4.8617244 0.68017554
2.6454582 4.8032846 0.77977121
2.6380377 4.7729764 0.90095007
2.6401858 4.6864042 0.97896206
2.6375496 4.6279635 1.0785571
2.6349134 4.5695238 1.1781528
2.6322773 4.5110822 1.2777498
2.6248589 4.4808159 1.3988578
2.6270051 4.3942018 1.4769406
2.6243687 4.3357615 1.5765359
2.6217327 4.2773213 1.6761315
2.6190965 4.2188811 1.7757268
2.6164603 4.16044 1.8753239
2.6138241 4.1019993 1.9749193
2.6064086 4.0717921 2.095927
2.5989978 4.0415878 2.2168994
2.5963626 3.9831638 2.3164668
2.5937271 3.9247403 2.4160345
2.5910916 3.8663166 2.5156019
2.5932295 3.7796311 2.5938349
2.5905938 3.7211998 2.6934154
2.5784111 3.7193246 2.8356071
2.5757761 3.6609094 2.9351599
2.5779147 3.574198 3.0134373
2.5705061 3.5440781 3.1342669
2.5678711 3.4856625 3.2338192
2.5700083 3.3989265 3.3121395
2.567373 3.3405027 3.4117072
2.5599661 3.3104165 3.532479
2.5621021 3.2236557 3.6108403
2.5594668 3.1652322 3.7104077
2.5520611 3.1351705 3.8311367
2.5541959 3.0483847 3.9095428
2.5563285 2.9615822 3.9879749
2.5536928 2.9031503 4.0875568
2.5558286 2.8163102 4.1660247
2.5531926 2.7578697 4.2656202
2.5457854 2.7278543 4.3863006
2.5479202 2.6409893 4.4648113
2.545284 2.5825491 4.5644064
2.5426478 2.5241089 4.6640015
2.5352421 2.4941254 4.7846279
2.5326064 2.4356937 4.8842087
2.5252066 2.4057229 5.0047827
2.5035224 2.4611201 5.1882153
2.5056481 2.374275 5.2667809
2.5125356 2.2589395 5.3244324
2.5146646 2.1720285 5.4030514
2.5120294 2.113605 5.5026188
2.5046303 2.083693 5.6230922
2.5067587 1.9967573 5.7017531
2.4993603 1.9668629 5.8221979
2.4776974 2.0224841 6.005127
2.4893327 1.8785648 6.0421448
2.8788128 -0.60656941 4.5147357
2.8810186 -0.69490349 4.5941601
2.9027264 -0.90035582 4.5884142
2.5602729 5.0657358 0.11175585
2.5528646 5.035378 0.23308229
2.5502276 4.9769206 0.33270752
2.5475907 4.9184642 0.43233109
2.5401828 4.8881264 0.55359209
2.5327785 4.8577929 0.67481625
2.5301423 4.7993522 0.77441144
2.5227411 4.7690458 0.89559162
2.5248702 4.6824718 0.97360229
2.522234 4.624032 1.0731978
2.5195978 4.5655913 1.172793
2.5169616 4.5071507 1.2723904
2.5143254 4.44871 1.3719857
2.5116892 4.3902693 1.4715812
2.5090532 4.3318295 1.5711765
2.506417 4.2733893 1.670772
2.5037808 4.2149491 1.7703674
2.5011446 4.1565075 1.8699641
2.4985085 4.0980678 1.9695598
2.4958723 4.0396276 2.0691552
2.4884758 4.0094285 2.190151
2.4858401 3.9509966 2.2897315
2.4832044 3.8925641 2.3893137
2.4805684 3.8341324 2.4888942
2.4779329 3.7757001 2.5884767
2.475297 3.717268 2.6880569
2.4679041 3.687115 2.8089447
2.4652686 3.6286914 2.9085121
2.4626331 3.5702677 3.0080798
2.4599977 3.5118437 3.1076472
2.4573624 3.4534197 3.2072144
2.4594822 3.3666754 3.2855475
2.4568465 3.3082433 3.3851278
2.4494562 3.2781489 3.5059152
2.4515748 3.1913795 3.584291
2.4441855 3.1613016 3.70505
2.44155 3.1028776 3.8046174
2.4436674 3.0160825 3.8830357
2.4410319 2.9576516 3.9826164
2.4431491 2.8708196 4.0610685
2.4405129 2.8123782 4.160665
2.4378767 2.7539377 4.2602606
2.4352405 2.6954978 4.3598557
2.4326043 2.6370573 4.4594517
2.4299684 2.5786171 4.5590467
2.4273322 2.5201769 4.6586423
2.424696 2.4617357 4.7582393
2.4173098 2.4317622 4.87885
2.4146738 2.3733301 4.9784322
2.3930504 2.428745 5.1619005
2.3951607 2.3418913 5.240479
2.3972712 2.2550094 5.3190756
2.3993835 2.168098 5.3976932
2.3967481 2.109674 5.4972606
2.3941126 2.0512505 5.5968285
2.3962235 1.9643061 5.6755013
2.3935876 1.9058735 5.7750835
2.376718 1.9330416 5.9372511
2.3788259 1.8461015 6.0159478
2.7622004 -0.61054564 4.5093164
2.764389 -0.69888031 4.5887403
2.7860131 -0.90433526 4.5829897
2.4449096 5.0618024 0.10639453
2.4375165 5.031445 0.22772145
2.4348795 4.9729872 0.32734644
2.4322426 4.9145308 0.42696989
2.4248519 4.8841939 0.5482322
2.4174647 4.8538613 0.66945708
2.4148285 4.7954206 0.76905239
2.4121923 4.7369809 0.86864793
2.4095564 4.6785402 0.96824312
2.40692 4.6201 1.0678385
2.4090328 4.5335021 1.1458901
2.4016476 4.5032187 1.2670312
2.3990116 4.4447784 1.3666265
2.3963754 4.3863378 1.466222
2.3937392 4.327898 1.5658174
2.391103 4.2694569 1.6654125
2.3884668 4.2110176 1.7650082
2.3858309 4.152576 1.8646049
2.3831944 4.0941362 1.9642007
2.375813 4.0639291 2.0852098
2.3684349 4.0337267 2.2061839
2.3657997 3.9753027 2.3057513
2.3631642 3.9168789 2.405319
2.3605289 3.8584549 2.5048862
2.3578935 3.8000309 2.6044536
2.355258 3.7416084 2.7040195
2.3478827 3.7114639 2.8248932
2.3452477 3.653049 2.9244456
2.3473518 3.5663366 3.0027218
2.3447163 3.5079129 3.1022892
2.3420808 3.4494889 3.2018566
2.3394456 3.3910649 3.301424
2.341548 3.3043122 3.3797693
2.3341746 3.2742186 3.5005574
2.3362765 3.187448 3.5789323
2.3336406 3.1290154 3.6785145
2.3310049 3.0705838 3.778095
2.3283689 3.0121512 3.8776772
2.3257332 2.9537196 3.9772577
2.3278353 2.8668876 4.0557089
2.3251991 2.8084464 4.1553059
2.3225629 2.7500062 4.2549019
2.3199267 2.691566 4.354497
2.3172905 2.6331253 4.454092
2.3146544 2.5746856 4.553688
2.3120182 2.5162449 4.6532831
2.304647 2.4862626 4.7739105
2.2972789 2.4562855 4.8944998
2.289912 2.4263258 5.0150595
2.2636416 2.5101197 5.2194014
2.2751842 2.3664165 5.2560701
2.2725499 2.3080182 5.3555946
2.2793717 2.1926641 5.413271
2.2767367 2.1342478 5.5128255
2.2741017 2.0758328 5.6123781
2.2761958 1.9888955 5.6910381
2.2735603 1.9304719 5.7906055
2.2567444 1.9576263 5.9527407
2.2635615 1.842171 6.0105906
2.6407487 -0.58529222 4.5252032
2.6429203 -0.67362058 4.6046143
2.6596119 -0.8497504 4.6201787
2.3295462 5.057869 0.10103273
2.3221703 5.0275121 0.22236061
2.3195333 4.9690542 0.32198548
2.3168964 4.9105978 0.42160881
2.3047872 4.9083705 0.56450069
2.3021507 4.8499293 0.66409767
2.2995148 4.7914886 0.76369309
2.2968786 4.7330484 0.8632884
2.2942424 4.6746082 0.96288407
2.2916062 4.616168 1.0624791
2.28897 4.5577278 1.1620746
2.286334 4.4992867 1.2616717
2.2836976 4.4408469 1.3612673
2.2810616 4.3824062 1.4608626
2.2784255 4.323966 1.5604579
2.2757893 4.2655253 1.6600534
2.2731531 4.2070851 1.7596488
2.2705169 4.148644 1.8592458
2.2631521 4.1184297 1.9802709
2.2605164 4.059998 2.0798514
2.2531536 4.0297956 2.2008262
2.2505181 3.9713724 2.3003938
2.252609 3.8847017 2.3785968
2.2499733 3.8262701 2.4781773
2.2473373 3.7678375 2.5777595
2.2447016 3.7094061 2.6773403
2.2326183 3.7075334 2.819536
2.2347057 3.6208298 2.8977966
2.2320702 3.5624058 2.997364
2.229435 3.5039818 3.0969315
2.2315228 3.4172454 3.1752481
2.2288871 3.3588128 3.2748303
2.2309747 3.2720385 3.3531804
2.2236154 3.2419484 3.4739928
2.2209797 3.1835172 3.5735738
2.2183437 3.1250846 3.673156
2.215708 3.066653 3.7727365
2.2177937 2.979836 3.8511586
2.2151575 2.921396 3.9507542
2.2125216 2.8629556 4.0503492
2.2146075 2.7761066 4.1288276
2.211971 2.7176573 4.2284374
2.204613 2.687634 4.3491373
2.2019768 2.6291938 4.4487324
2.1993406 2.5707533 4.5483274
2.1967044 2.5123134 4.6479235
2.1893501 2.4823318 4.7685523
2.1819975 2.4523549 4.889142
2.1746476 2.4223955 5.0097027
2.1484592 2.5061924 5.2140484
2.1552422 2.3909445 5.2716603
2.1526082 2.3325531 5.371172
2.1546838 2.2456901 5.4497643
2.1567607 2.1588116 5.5283813
2.1541259 2.1004047 5.6279211
2.1562023 2.0134873 5.7065735
2.1488566 1.9835904 5.8269987
2.1368048 1.9822116 5.9682345
2.1435874 1.8667767 6.0260758
2.5193367 -0.56006396 4.5410762
2.521488 -0.64835823 4.6204877
2.5332847 -0.79518676 4.6573505
2.5402656 -0.91286123 4.7155309
2.5472481 -1.0305948 4.7737513
2.2141829 5.0539355 0.095671415
2.2068222 5.0235791 0.21700001
2.2089083 4.9370046 0.29494739
2.2015483 4.9066648 0.41624808
2.1941919 4.8763285 0.53751171
2.1868372 4.8459973 0.65873837
2.184201 4.7875576 0.75833404
2.1815648 4.7291169 0.85792911
2.1789286 4.6706762 0.95752466
2.1762924 4.612236 1.0571201
2.1736565 4.5537958 1.1567155
2.1710203 4.4953551 1.2563124
2.1683841 4.4369144 1.3559077
2.1657479 4.3784742 1.4555035
2.1583967 4.348227 1.5765868
2.1604755 4.2615938 1.6546943
2.1578393 4.2031536 1.7542894
2.1552031 4.1447124 1.8538866
2.1478536 4.1144986 1.9749123
2.1405077 4.0842886 2.0959008
2.1378722 4.0258646 2.1954682
2.1399465 3.9392025 2.2736557
2.1373105 3.8807704 2.3732381
2.1346748 3.8223388 2.4728186
2.1320391 3.7639062 2.5724008
2.1294031 3.7054746 2.6719813
2.1220596 3.6753228 2.7928712
2.1194243 3.6168988 2.8924387
2.1214957 3.5301781 2.9707265
2.1141534 3.500051 3.0915735
2.1162243 3.4133139 3.1698895
2.1182969 3.3265467 3.2482255
2.1156609 3.2681069 3.3478212
2.1083169 3.2380176 3.4686346
2.1103885 3.151226 3.5470116
2.1077523 3.0927849 3.6466088
2.1051161 3.0343447 3.7462041
2.1071861 2.9475193 3.8246384
2.1045496 2.8890717 3.9242473
2.1019132 2.8306227 4.0238576
2.0992765 2.7721736 4.1234674
2.0966401 2.7137249 4.2230778
2.0940034 2.6552756 4.3226881
2.091367 2.596827 4.4222984
2.0887303 2.5383792 4.5219069
2.0813909 2.5083818 4.6425648
2.0740516 2.4783998 4.7631936
2.0667162 2.4484236 4.8837843
2.0593815 2.4184656 5.0043449
2.0379694 2.4738283 5.1877422
2.035336 2.4154472 5.2872372
2.0373933 2.3286252 5.3658171
2.0394518 2.2417612 5.4444084
2.0415115 2.154882 5.5230246
2.0294917 2.1534534 5.6643486
2.031549 2.0665648 5.7429824
2.0289147 2.0081673 5.8425055
2.02159 1.9782827 5.9628801
2.0283382 1.8628469 6.0207195
2.0210118 1.8329711 6.1410789
2.4048924 -0.65233386 4.6150689
2.4118338 -0.76991749 4.6732106
2.4235845 -0.9168396 4.7101078
2.420917 -0.97597277 4.8108835
2.1035271 5.0218892 0.06859374
2.0961823 4.9915366 0.18994761
2.093545 4.9330711 0.28958583
2.0862021 4.9027319 0.41088748
2.078861 4.872396 0.53215182
2.0715234 4.8420658 0.6533792
2.0688872 4.7836251 0.75297439
2.066251 4.7251854 0.85257006
2.0636148 4.6667447 0.95216525
2.0609787 4.6083045 1.0517609
2.0583425 4.5498643 1.1513561
2.0557063 4.4914227 1.2509531
2.0530701 4.4329824 1.3505485
2.0504341 4.3745418 1.4501438
2.0431001 4.344295 1.571228
2.0451617 4.2576618 1.6493348
2.0425255 4.1992221 1.7489302
2.0398893 4.1407804 1.848527
2.032557 4.1105671 1.9695537
2.0252261 4.080358 2.090543
2.0225906 4.0219345 2.1901104
2.0246496 3.9352713 2.268297
2.0220139 3.8768392 2.3678794
2.0193779 3.8184075 2.4674599
2.0167422 3.7599747 2.5670421
2.0141065 3.7015431 2.6666229
2.0067782 3.671392 2.7875135
2.0041428 3.6129684 2.8870811
2.0061991 3.5262463 2.9653678
2.0035634 3.467814 3.0649502
2.0009274 3.4093821 3.1645305
2.0029831 3.3226151 3.2428663
2.0003469 3.2641745 3.3424616
1.9977108 3.2057347 3.4420571
1.9950746 3.1472943 3.5416522
1.9924386 3.0888534 3.6412497
1.9898024 3.0304127 3.7408447
1.9918553 2.9435868 3.8192785
1.9892188 2.8851395 3.9188871
1.9865823 2.8266902 4.0184975
1.9839457 2.7682412 4.1181073
1.9813092 2.7097926 4.2177181
1.9786726 2.6513436 4.3173275
1.9760361 2.5928948 4.4169378
1.9733996 2.534447 4.5165467
1.9660769 2.5044494 4.6372046
1.9634407 2.4460087 4.7368021
1.9561192 2.4160368 4.8574152
1.9487993 2.3860698 4.977994
1.9274446 2.4414771 5.1614408
1.9201363 2.4115195 5.2818832
1.9221767 2.3246963 5.3604627
1.92422 2.2378321 5.4390526
1.9215857 2.1794333 5.5385771
1.9142751 2.1495247 5.6589937
1.9163171 2.0626359 5.737627
1.9090073 2.0327456 5.8580132
1.9063734 1.974354 5.9575253
1.9130911 1.8589168 6.0153627
1.9057801 1.8290422 6.1357236
1.9078218 1.7421019 6.2144423
2.2882953 -0.65630937 4.6096497
2.2952042 -0.77389407 4.6677895
2.3069034 -0.92081833 4.7046852
2.3090286 -1.0092531 4.7841825
1.9834564 5.0460687 0.084947824
1.980819 4.9876032 0.18458605
1.9781817 4.9291377 0.28422415
1.9708542 4.8987989 0.40552676
1.9588456 4.896575 0.54842257
1.9562094 4.8381338 0.64801967
1.9535733 4.7796936 0.7476151
1.9509372 4.7212539 0.84721076
1.948301 4.6628132 0.94680595
1.9456649 4.604373 1.0464014
1.9430287 4.5459328 1.1459969
1.9357089 4.5156608 1.2671244
1.933073 4.4572277 1.3667065
1.9304373 4.3987961 1.4662871
1.9278015 4.340364 1.5658696
1.9251658 4.2819319 1.6654499
1.9272118 4.1952901 1.743571
1.9198942 4.1650681 1.8646128
1.9172584 4.1066356 1.964195
1.9099447 4.0764275 2.0851853
1.9119868 3.9897714 2.163358
1.9140309 3.9030876 2.2415495
1.9113948 3.8446474 2.341145
1.9087586 3.7862062 2.440742
1.9014437 3.7560439 2.5616839
1.9034863 3.6693261 2.6399329
1.8961722 3.6391797 2.7608466
1.8935363 3.5807469 2.8604288
1.8955778 3.4940047 2.9387188
1.8882648 3.4638827 3.0595918
1.8903055 3.3771234 3.1379113
1.8876693 3.3186831 3.2375069
1.8850331 3.2602429 3.3371022
1.8823971 3.201803 3.436698
1.884434 3.1150014 3.5150881
1.8771247 3.0849214 3.63589
1.8791609 2.9981039 3.7143085
1.8765243 2.9396548 3.8139186
1.8692162 2.9096007 3.9346764
1.86658 2.85116 4.0342712
1.8686147 2.7643089 4.1127472
1.8659782 2.7058597 4.2123575
1.8586715 2.6758389 4.3330593
1.8560354 2.6173983 4.4326549
1.8533993 2.5589585 4.5322504
1.8460922 2.5289702 4.652894
1.8481269 2.4420767 4.7314425
1.8361533 2.4405622 4.8730688
1.8288528 2.410605 4.9936314
1.8075702 2.4659724 5.1770344
1.8049368 2.4075909 5.2765293
1.8023032 2.3492093 5.3760262
1.8043281 2.2623782 5.4546175
1.8016942 2.2039883 5.5541277
1.7944026 2.1740625 5.6745148
1.7964263 2.0872073 5.753149
1.7891356 2.0572982 5.8735085
1.7865021 1.9989161 5.9730039
1.7931824 1.8835115 6.0308437
1.7858907 1.8536458 6.1511898
1.7879138 1.7667146 6.2298927
2.1669333 -0.63107038 4.6255102
2.1785746 -0.77787077 4.6623697
2.1902242 -0.9247967 4.6992626
2.1923323 -1.0132319 4.778759
1.8680929 5.0421352 0.079586267
1.8654556 4.9836698 0.17922449
1.8581449 4.9533224 0.30054235
1.8508357 4.9229803 0.42182136
1.8435299 4.892643 0.5430634
1.8408937 4.8342018 0.64266026
1.8382577 4.7757611 0.74225569
1.8356215 4.7173214 0.84185112
1.8329853 4.6588812 0.94144678
1.8303492 4.600441 1.041042
1.827713 4.5420008 1.1406375
1.8204122 4.5117292 1.2617658
1.8177764 4.4532967 1.3613479
1.8151406 4.3948655 1.4609288
1.8125049 4.3364325 1.5605108
1.8098691 4.2780013 1.6600916
1.8118961 4.1913576 1.7382113
1.8045975 4.1611371 1.8592544
1.8019617 4.102705 1.9588368
1.7993259 4.0442729 2.0584171
1.7966901 3.9858406 2.1579995
1.7987152 3.8991556 2.2361901
1.796079 3.8407154 2.3357854
1.7934428 3.7822742 2.4353826
1.7908067 3.723834 2.5349779
1.7928318 3.6371078 2.6132393
1.7855344 3.6069536 2.7341688
1.7828983 3.5485137 2.8337643
1.7802621 3.4900732 2.9333596
1.7776259 3.4316318 3.0329566
1.7796491 3.3448634 3.1112885
1.7770126 3.2864151 3.2108989
1.774376 3.2279658 3.3105092
1.7670813 3.1978707 3.4313383
1.7691031 3.1110692 3.509728
1.7664665 3.0526202 3.609338
1.7638299 2.9941714 3.7089484
1.7611934 2.9357226 3.8085585
1.7539005 2.9056687 3.929317
1.7512643 2.8472285 4.0289121
1.7532837 2.7603765 4.1073875
1.7459919 2.7303472 4.2281046
1.7433559 2.6719065 4.3276997
1.7407197 2.6134667 4.4272957
1.7334313 2.5834715 4.5479536
1.7307955 2.525039 4.6475353
1.7281597 2.4666064 4.747118
1.7208737 2.4366317 4.8677111
1.7135885 2.4066749 4.9882746
1.6923726 2.4620447 5.1716805
1.6897391 2.4036632 5.2711754
1.6871055 2.3452806 5.3706722
1.6891133 2.2584496 5.4492631
1.6818385 2.2285171 5.569664
1.6792049 2.170135 5.6691608
1.6765715 2.1117527 5.7686577
1.6692975 2.0818667 5.8890095
1.6713045 1.9949884 5.9676495
1.6779504 1.8795826 6.0254879
1.670676 1.8497176 6.1458349
1.6680419 1.791326 6.245347
2.0571902 -0.7525996 4.6782327
2.0687871 -0.89949358 4.715126
2.0708759 -0.98790824 4.7946157
1.7527297 5.0382013 0.07422471
1.7454337 5.0078468 0.1955564
1.7427968 4.9493895 0.29518151
1.7355067 4.9190478 0.41646123
1.7282162 4.8887115 0.53770411
1.72558 4.8302703 0.63730109
1.7229438 4.7718296 0.73689651
1.7156568 4.7415266 0.8580817
1.7130209 4.6830931 0.95766377
1.7150353 4.596509 1.0356828
1.7123991 4.5380688 1.1352782
1.7051136 4.5077977 1.2564071
1.7024778 4.4493656 1.3559897
1.6951962 4.4191079 1.4770668
1.6925608 4.3606839 1.5766342
1.6945705 4.2740698 1.6547329
1.6919347 4.2156372 1.7543151
1.6892989 4.1572056 1.8538957
1.6866632 4.098773 1.9534779
1.6840273 4.0403419 2.0530586
1.6813916 3.981909 2.1526408
1.6834013 3.8952243 2.2308309
1.6807653 3.8367839 2.3304262
1.6781291 3.7783422 2.4300232
1.6754929 3.7199025 2.5296187
1.6728568 3.6614618 2.629214
1.6702206 3.6030221 2.7288096
1.6675844 3.5445814 2.8284049
1.6649482 3.4861414 2.9280005
1.662312 3.4277 3.0275974
1.659676 3.3692598 3.1271927
1.6570398 3.3108196 3.2267883
1.6544036 3.2523794 3.3263836
1.6517675 3.1939392 3.4259791
1.653774 3.1071367 3.5043678
1.6511375 3.0486877 3.6039782
1.6485009 2.9902387 3.703588
1.6412228 2.9601772 3.8243623
1.6385866 2.9017367 3.9239576
1.6359506 2.8432968 4.0235534
1.6333144 2.7848551 4.1231499
1.6260401 2.7548356 4.2438512
1.6234043 2.696404 4.3434315
1.6207685 2.6379719 4.4430141
1.6134984 2.6079726 4.5636511
1.6062292 2.5779901 4.6842594
1.6128612 2.4626751 4.7417593
1.6009592 2.4611602 4.8833647
1.5936923 2.4311991 5.0039062
1.5725471 2.4865551 5.1872826
1.5699139 2.4281819 5.2867641
1.5672808 2.3698077 5.3862457
1.5646477 2.3114345 5.4857283
1.5620145 2.2530603 5.5852098
1.5593814 2.1946874 5.6846919
1.5613719 2.1078248 5.7633038
1.5494933 2.106411 5.9044962
1.5514818 2.0195661 5.9831376
1.5627185 1.8756535 6.0201325
1.5508378 1.8742962 6.1612887
1.5528253 1.7873971 6.2399926
1.5548156 1.7004571 6.3187065
1.9405777 -0.75657547 4.6728125
1.9568641 -0.93275332 4.6884165
1.9541967 -0.99188626 4.7891927
1.6373644 5.0342679 0.068863153
1.6300875 5.0039139 0.19019556
1.6274506 4.9454565 0.28982043
1.6201756 4.9151158 0.41110146
1.6129023 4.884779 0.5323447
1.6102662 4.8263378 0.6319418
1.60763 4.7678981 0.7315371
1.60036 4.7375946 0.85272288
1.5977243 4.679162 0.95230532
1.5997216 4.592577 1.0303233
1.5970854 4.5341368 1.1299189
1.5944492 4.4756956 1.2295159
1.5871811 4.4454341 1.3506308
1.5845454 4.3870025 1.4502116
1.5819095 4.3285699 1.549794
1.5792738 4.2701383 1.6493744
1.5812684 4.1834946 1.7274928
1.5786322 4.1250529 1.8270899
1.5713664 4.094842 1.9481193
1.5687307 4.0364103 2.0477002
1.5660949 3.9779778 2.1472824
1.5680876 3.8912921 2.2254715
1.5654514 3.8328519 2.325067
1.5628152 3.7744107 2.424664
1.5601791 3.7159703 2.5242591
1.5621718 3.6292427 2.602519
1.5549068 3.5990896 2.7234499
1.5522707 3.5406499 2.8230457
1.5496345 3.4822092 2.9226408
1.5469983 3.4237685 3.0222383
1.5443621 3.3653278 3.1218333
1.5463526 3.2785501 3.2001789
1.5437161 3.2201014 3.299789
1.5364537 3.190007 3.4206197
1.538443 3.1032045 3.4990077
1.5358064 3.0447557 3.598618
1.5331699 2.9863064 3.6982281
1.5305334 2.9278576 3.7978382
1.5232729 2.8978052 3.9185982
1.5206367 2.8393645 4.0181932
1.5226238 2.7525117 4.0966673
1.5153644 2.7224829 4.2173862
1.5081077 2.6924729 4.3380737
1.5054718 2.6340399 4.4376554
1.5028361 2.5756087 4.5372362
1.4955816 2.5456185 4.6578608
1.4975644 2.4587436 4.7364006
1.4903109 2.4287705 4.8569956
1.4784433 2.4272692 4.9985495
1.4619734 2.4541891 5.1609726
1.4547315 2.4242544 5.2814112
1.4520984 2.3658803 5.3808928
1.4494653 2.307507 5.4803748
1.4468321 2.2491333 5.5798564
1.444199 2.1907601 5.6793385
1.4415658 2.1323857 5.778821
1.4343281 2.102484 5.8991432
1.4362994 2.0156384 5.9777846
1.4428784 1.9002504 6.0356159
1.4356382 1.8703682 6.1559348
1.4330047 1.8119867 6.2554293
1.4349766 1.7250788 6.334147
1.8239652 -0.76055181 4.6673932
1.8307377 -0.87816608 4.7255692
1.8327943 -0.96657264 4.8050423
1.522001 5.0303345 0.063501596
1.5147394 4.9999814 0.18483496
1.5121025 4.9415236 0.28445971
1.5094656 4.8830671 0.38408327
1.5022081 4.8527346 0.50535142
1.4995717 4.7942863 0.60495985
1.4923161 4.7639661 0.72617805
1.4896801 4.7055254 0.82577324
1.4870439 4.6470852 0.92536855
1.4890255 4.5604906 1.0034007
1.4863889 4.5020428 1.1030092
1.4837525 4.443594 1.2026196
1.4764992 4.4133234 1.3237519
1.4738631 4.3548832 1.4233475
1.4712269 4.2964425 1.5229425
1.4685907 4.2380028 1.6225382
