# .PCD v0.7 - Point Cloud Data file format
VERSION 0.7
FIELDS x y z
SIZE 4 4 4
TYPE F F F
COUNT 1 1 1
WIDTH 1497
HEIGHT 1
VIEWPOINT 0 0 0 1 0 0 0
POINTS 1497
DATA ascii
0.29223785 1.0507009 4.1663041
0.28882891 0.93185425 4.1550522
0.28541997 0.81300771 4.1438007
0.26912254 0.66861075 4.2435212
0.26142234 0.54132348 4.2692366
0.25801548 0.42254898 4.2579918
0.25031775 0.29531482 4.2837124
0.24691133 0.1765555 4.272469
0.23921514 0.049374551 4.2981949
0.24009846 -0.060963146 4.2499824
0.23240325 -0.18810996 4.2757115
0.224713 -0.31521225 4.3014145
0.21273798 -0.45062324 4.3640666
0.20505397 -0.57763535 4.3897476
0.20165004 -0.69630748 4.3785124
0.19396576 -0.82326257 4.4041982
0.19056238 -0.94191581 4.3929648
0.18715888 -1.0605727 4.381731
0.18803433 -1.1709956 4.3335714
0.18463039 -1.2896677 4.3223362
0.18550251 -1.4001399 4.2741718
0.17782255 -1.5270118 4.2998662
0.1744186 -1.6456838 4.288631
0.17101468 -1.7643558 4.2773957
0.15906194 -1.8992776 4.3400178
0.15565903 -2.0179133 4.3287859
0.13944685 -2.1608036 4.4282527
0.12751313 -2.2955108 4.4907885
0.1283779 -2.4060168 4.4426823
0.1292426 -2.5165577 4.3945723
0.12584117 -2.6351423 4.3833451
0.12670444 -2.745734 4.3352304
0.11903831 -2.8723118 4.3608913
0.11137326 -2.9988534 4.3865557
0.099449962 -3.1332922 4.4490862
0.091790289 -3.2597399 4.4747291
0.084134489 -3.3861501 4.50036
0.080735579 -3.5046475 4.4891415
0.081591994 -3.6152854 4.4410682
0.073937744 -3.7416422 4.4667044
0.070538819 -3.8601394 4.4554853
0.071393728 -3.9708307 4.4074073
0.07225053 -4.0815525 4.3593106
0.073106423 -4.1923056 4.3112111
0.078221232 -4.2953281 4.2261686
0.079077527 -4.4061627 4.178031
0.30797952 4.9127407 4.2975435
0.30887341 4.8029232 4.2492566
0.3054609 4.6839514 4.2379932
0.30204847 4.5649834 4.2267303
0.29863593 4.4460111 4.2154665
0.2952235 4.3270426 4.2042031
0.29611531 4.2171197 4.1559067
0.28839844 4.0890999 4.1816764
0.28928939 3.9791458 4.1333771
0.29018104 3.8691564 4.0850434
0.28246334 3.7411675 4.1108465
0.28335404 3.631144 4.0625095
0.27994052 3.5121381 4.0512428
0.27652714 3.393136 4.0399761
0.26881149 3.2652192 4.0657864
0.26539841 3.1462283 4.0545211
0.25768611 3.0183678 4.0803056
0.25427368 2.8993993 4.0690422
0.2465639 2.7715921 4.0948324
0.2431519 2.6526392 4.0835705
0.23544371 2.524888 4.1093655
0.23632804 2.414737 4.0610471
0.22862083 2.2870202 4.0868454
0.22091645 2.1593406 4.1126165
0.21321616 2.031703 4.1383915
0.21409456 1.921507 4.0900998
0.20639524 1.7939035 4.1158781
0.20727265 1.6836733 4.0675831
0.19528601 1.547453 4.1304049
0.19187598 1.4285685 4.1191497
0.18418154 1.3010739 4.144908
0.18077216 1.1822121 4.1336546
0.16879873 1.0462015 4.1964049
0.16967127 0.93592405 4.1481667
0.16198184 0.80854243 4.1739044
0.15001631 0.67267871 4.2366385
0.14660889 0.55388522 4.2253919
0.13892731 0.42661637 4.2511101
0.13552035 0.30783802 4.2398648
0.12784031 0.18062231 4.2655883
0.12443386 0.06186299 4.2543449
0.12102744 -0.056896351 4.2431016
0.11334936 -0.18404368 4.2688317
0.10567622 -0.31114656 4.2945356
0.093737364 -0.44655886 4.3571901
0.086069494 -0.57357162 4.3828716
0.082665578 -0.69224358 4.3716364
0.074999392 -0.81919938 4.3973236
0.071595982 -0.93785232 4.3860903
0.068192497 -1.0565095 4.3748565
0.06904988 -1.1669316 4.3266954
0.065645948 -1.2856038 4.3154602
0.066501901 -1.3960755 4.2672954
0.054578856 -1.5311253 4.3299227
0.055434152 -1.6416198 4.281755
0.04777199 -1.7684354 4.3074555
0.035857797 -1.9033365 4.3700509
0.0324554 -2.0219555 4.3588209
0.020550907 -2.1567426 4.421382
0.0086514056 -2.2914512 4.4839201
0.0094981194 -2.401957 4.435812
0.0060971677 -2.5205243 4.4245868
0.0069452226 -2.6310816 4.3764744
0.0077913404 -2.7416725 4.3283591
0.00014236569 -2.8682506 4.3540206
-0.011751086 -3.0027487 4.4165783
-0.023635864 -3.137167 4.4790831
-0.031275004 -3.2635949 4.5047131
-0.034673929 -3.3820925 4.4934945
-0.042311549 -3.5084672 4.5191298
-0.04147175 -3.619087 4.4710574
-0.044870675 -3.7375846 4.4598389
-0.0482696 -3.856082 4.4486198
-0.047431797 -3.9667718 4.4005408
-0.050831228 -4.0852866 4.3893204
-0.049992949 -4.1960244 4.3412213
-0.044916689 -4.2990332 4.2562084
-0.044076145 -4.4098516 4.2080708
0.18871436 4.9168139 4.2906513
0.18617862 4.688026 4.2311001
0.18276618 4.569057 4.2198367
0.17935364 4.4500856 4.2085733
0.17594123 4.3311172 4.1973104
0.17681497 4.2211947 4.1490126
0.16911617 4.0931735 4.1747832
0.169989 3.9832201 4.1264825
0.17086357 3.8732319 4.0781484
0.16316298 3.7452421 4.1039524
0.16403656 3.6352201 4.0556145
0.16062304 3.5162137 4.0443478
0.15720963 3.3972108 4.0330815
0.14951113 3.2692938 4.0588923
0.14609805 3.1503029 4.047627
0.13840382 3.0224419 4.0734124
0.13499141 2.9034731 4.0621495
0.12729873 2.7756655 4.0879402
0.12388675 2.6567128 4.0766783
0.11619665 2.5289609 4.1024742
0.11706288 2.4188106 4.0541549
0.10937376 2.2910931 4.0799541
0.10168843 2.1634128 4.1057267
0.094004303 2.0357745 4.1315026
0.094866514 1.9255793 4.08321
0.087183341 1.7979748 4.1089892
0.088044614 1.6877455 4.0606933
0.07609129 1.5515243 4.123517
0.072681263 1.4326396 4.1122618
0.065003932 1.3051444 4.1380205
0.061594576 1.1862826 4.1267676
0.053919718 1.0588405 4.1525321
0.050510794 0.93999398 4.1412802
0.042839453 0.81261164 4.1670198
0.030910075 0.67674679 4.2297554
0.027502671 0.55795324 4.2185087
0.019838214 0.43068376 4.2442284
0.016431212 0.31190544 4.2329826
0.0087683499 0.18468915 4.2587075
0.0053618848 0.06592983 4.2474642
0.0019554496 -0.052829526 4.2362204
-0.0057055354 -0.17997748 4.2619519
-0.01336056 -0.30708098 4.2876568
-0.025264233 -0.44249436 4.3503132
-0.032914013 -0.56950778 4.3759956
-0.04056251 -0.69647932 4.4016824
-0.04820928 -0.82341933 4.4273567
-0.051612079 -0.94205326 4.4161253
-0.050772876 -1.0524462 4.3679814
-0.054176241 -1.1710993 4.3567481
-0.057579637 -1.2897522 4.3455148
-0.052499712 -1.392011 4.2604184
-0.064386547 -1.5270621 4.3230476
-0.067790061 -1.6457188 4.3118143
-0.071193457 -1.7643721 4.300581
-0.087308258 -1.9073967 4.4000869
-0.090710104 -2.0259969 4.3888588
-0.10257694 -2.1607614 4.4513931
-0.11020932 -2.2873914 4.4770508
-0.10937878 -2.3978963 4.4289427
-0.11277971 -2.516464 4.417717
-0.11618066 -2.6350315 4.4064922
-0.11958155 -2.7535975 4.3952665
-0.12721142 -2.8801401 4.4209332
-0.13483739 -3.0066426 4.4465728
-0.1466845 -3.1410398 4.5090661
-0.15008342 -3.2595375 4.4978476
-0.15770438 -3.3859296 4.5234823
-0.16532159 -3.5122833 4.5490904
-0.16450125 -3.6228902 4.5010481
-0.1678997 -3.7413704 4.4898314
-0.17129806 -3.8598487 4.4786143
-0.17469651 -3.9783289 4.4673977
-0.17387584 -4.0890193 4.4193172
-0.17727476 -4.2075171 4.4080987
-0.17223653 -4.3104968 4.3231316
-0.17141694 -4.4212866 4.2750263
0.069449246 4.9208875 4.2837591
0.070309788 4.8110714 4.2354708
0.066897243 4.6920991 4.2242069
0.063484833 4.573132 4.212944
0.060072303 4.4541597 4.2016802
0.056659877 4.3351912 4.1904173
0.057514593 4.2252688 4.1421185
0.049834833 4.0972476 4.1678901
0.050688669 3.9872949 4.1195889
0.051546082 3.8773072 4.0712533
0.043862671 3.7493172 4.0970583
0.044719085 3.6392951 4.0487194
0.037036747 3.5113428 4.0745282
0.03362377 3.3923554 4.0632629
0.025947556 3.2644594 4.0890465
0.026797727 3.1543779 4.0407329
0.019122496 3.0265157 4.0665197
0.011445582 2.8986917 4.09231
0.0080336332 2.7797391 4.081048
0.0046216249 2.6607854 4.0697861
-0.0030504167 2.5330336 4.0955834
-0.0064618587 2.4140999 4.0843234
-0.014130503 2.2864041 4.110095
-0.017541498 2.1674852 4.0988364
-0.025208533 2.0398462 4.1246138
-0.028619021 1.9209465 4.1133571
-0.03202948 1.8020467 4.1021004
-0.031185299 1.6918176 4.053803
-0.043102503 1.5555952 4.1166291
-0.046512544 1.4367105 4.1053739
-0.054172695 1.3092148 4.131134
-0.05758208 1.1903529 4.1198807
-0.065239817 1.0629103 4.1456461
-0.068648756 0.94406384 4.1343946
-0.076302052 0.81668079 4.1601348
-0.088196218 0.68081468 4.2228727
-0.091603637 0.56202126 4.2116261
-0.095011026 0.44322768 4.2003794
-0.10265794 0.31597289 4.2261009
-0.11030272 0.18875596 4.2518268
-0.11370921 0.069996648 4.2405834
-0.11711562 -0.048762701 4.2293396
-0.12475753 -0.17591134 4.2550721
-0.13239643 -0.30301538 4.2807779
-0.14426485 -0.43843004 4.3434362
-0.15189749 -0.56544393 4.3691201
-0.15530139 -0.68411595 4.3578849
-0.16293144 -0.81107301 4.3835745
-0.16633478 -0.92972594 4.3723407
-0.16551322 -1.0401322 4.3241792
-0.16891712 -1.1588041 4.3129444
-0.17232105 -1.2774761 4.3017087
-0.17150033 -1.3879468 4.2535415
-0.18335193 -1.5229988 4.3161731
-0.18253285 -1.6334921 4.2680035
-0.19015884 -1.7603087 4.2937059
-0.20200357 -1.8952128 4.3563061
-0.20540595 -2.0138314 4.3450756
-0.21302614 -2.1405387 4.3707581
-0.22485673 -2.2752688 4.4332981
-0.22404382 -2.3857903 4.3851867
-0.23165858 -2.512404 4.4108477
-0.23084664 -2.6229599 4.3627329
-0.23424807 -2.7415445 4.3515062
-0.24186134 -2.8681049 4.377172
-0.253681 -3.0025833 4.4397054
-0.26128793 -3.12905 4.4653497
-0.26889181 -3.2554793 4.4909816
-0.27229071 -3.3739767 4.479763
-0.28409475 -3.5082269 4.5422268
-0.28329158 -3.6188331 4.4941835
-0.28669 -3.7373133 4.4829664
-0.29428846 -3.8636141 4.5085807
-0.29348683 -3.9742715 4.4605327
-0.29688525 -4.092752 4.449316
-0.29608321 -4.2034583 4.4012327
-0.29948211 -4.3219557 4.3900137
-0.2986815 -4.4327126 4.3419266
-0.045561939 4.9341135 4.239841
-0.044720829 4.8242831 4.1915498
-0.05238691 4.6961732 4.2173142
-0.051546752 4.586309 4.1690197
-0.05921188 4.4582334 4.1947875
-0.062624276 4.3392653 4.1835241
-0.061785758 4.2293439 4.1352243
-0.069449365 4.1013217 4.1609974
-0.068611681 3.9913697 4.1126947
-0.072024763 3.8723788 4.101429
-0.075437725 3.7533915 4.0901642
-0.078850657 3.6344047 4.0788994
-0.082263619 3.5154176 4.0676341
-0.089924186 3.387502 4.0934167
-0.093336612 3.2685337 4.0821538
-0.096749157 3.1495619 4.0708899
-0.10440665 3.0217175 4.0966797
-0.10781863 2.9027648 4.0854177
-0.11547446 2.7749786 4.1112127
-0.11888593 2.6560445 4.0999527
-0.12653852 2.5283098 4.1257219
-0.12994945 2.4093947 4.1144638
-0.13336042 2.2904761 4.1032052
-0.14100987 2.1628175 4.1289816
-0.14442033 2.0439179 4.1177244
-0.14783078 1.9250181 4.1064682
-0.15124124 1.8061184 4.095211
-0.1504153 1.6958901 4.0469131
-0.15806216 1.5683187 4.0726976
-0.16570726 1.4407815 4.0984859
-0.16911718 1.3219007 4.0872307
-0.17252722 1.203016 4.0759754
-0.18439841 1.0669801 4.1387601
-0.18780732 0.94813353 4.1275086
-0.19544345 0.82074994 4.1532497
-0.20730338 0.68488276 4.2159896
-0.21071082 0.56608927 4.2047434
-0.21411821 0.44729576 4.1934967
-0.22174701 0.32004032 4.2192192
-0.22515398 0.20126203 4.207974
-0.23278022 0.074063458 4.2337027
-0.23618662 -0.044695891 4.2224588
-0.24381149 -0.17184508 4.2481923
-0.25143325 -0.29894972 4.2738991
-0.26326638 -0.4343656 4.3365593
-0.27088004 -0.56138015 4.3622446
-0.27428406 -0.6800521 4.3510094
-0.27768791 -0.79872417 4.3397741
-0.28530216 -0.92566305 4.3654661
-0.28449577 -1.0360681 4.3173037
-0.28789973 -1.1547402 4.3060684
-0.29130358 -1.2734123 4.2948332
-0.29050183 -1.3838824 4.246665
-0.2981115 -1.5107565 4.2723627
-0.3015154 -1.6294284 4.2611279
-0.30912626 -1.7562456 4.2868314
-0.32093382 -1.8911506 4.3494329
-0.32433623 -2.0097694 4.3382034
-0.336137 -2.1445601 4.4007697
-0.34373456 -2.2712085 4.4264283
-0.34293979 -2.3817294 4.3783159
-0.34634125 -2.5003138 4.3670893
-0.34974259 -2.6188986 4.3558621
-0.35314411 -2.7374835 4.3446355
-0.36073923 -2.8640449 4.3703022
-0.3683334 -2.9905698 4.3959723
-0.37592363 -3.1170561 4.4216156
-0.38351279 -3.2435062 4.4472628
-0.3910991 -3.3699188 4.4728975
-0.39868444 -3.4962955 4.4985361
-0.39789706 -3.6069138 4.4504604
-0.40129596 -3.7254109 4.4392419
-0.4088797 -3.8517344 4.4648852
-0.41227823 -3.9702146 4.4536681
-0.41149276 -4.0809031 4.4055858
-0.41489166 -4.1994004 4.3943672
-0.41410768 -4.3101401 4.3462801
-0.41332281 -4.4209127 4.2981744
-0.16060722 4.9473457 4.1959209
-0.15978181 4.837502 4.1475973
-0.16743314 4.7093716 4.1733909
-0.17084616 4.590384 4.1621256
-0.17425925 4.4713931 4.1508603
-0.17767215 4.3524065 4.1395955
-0.18108511 4.2334189 4.1283307
-0.18873155 4.1053958 4.1541042
-0.18791103 3.9954443 4.1058006
-0.19132411 3.8764534 4.0945354
-0.19473708 3.7574661 4.0832701
-0.19815004 3.638479 4.0720053
-0.201563 3.5194917 4.0607405
-0.2092064 3.3915758 4.086524
-0.21684778 3.2636974 4.1123109
-0.21603137 3.1536355 4.0639968
-0.22789875 3.0169189 4.1268415
-0.23131016 2.8979852 4.1155815
-0.23894548 2.7702196 4.1413488
-0.24235648 2.6513007 4.1300902
-0.2499904 2.5235887 4.1558628
-0.24917835 2.4134672 4.1075735
-0.25681132 2.2857893 4.1333494
-0.26022184 2.1668894 4.1220922
-0.2636323 2.0479894 4.1108356
-0.26282227 1.9377959 4.0625401
-0.27045321 1.8101898 4.0883222
-0.2696442 1.699962 4.0400229
-0.27727413 1.5723903 4.0658088
-0.28490204 1.4448526 4.0915976
-0.28831196 1.3259718 4.0803432
-0.29172194 1.2070872 4.0690875
-0.30355793 1.07105 4.1318741
-0.30696684 0.95220327 4.1206226
-0.31458485 0.82481927 4.1463652
-0.32640958 0.68895078 4.2091069
-0.329817 0.57015729 4.1978602
-0.33322436 0.45136377 4.1866136
-0.34083611 0.32410774 4.2123375
-0.34844571 0.19688961 4.2380652
-0.35185218 0.078130282 4.2268219
-0.35525858 -0.040629067 4.2155781
-0.36286533 -0.16777888 4.241312
-0.37466675 -0.30325046 4.3039851
-0.38226712 -0.4303011 4.3296824
-0.39405739 -0.56563663 4.3922915
-0.3974607 -0.68428969 4.3810582
-0.40086418 -0.80294657 4.3698244
-0.40845799 -0.9298653 4.3955045
-0.40767109 -1.0402565 4.3473573
-0.40688515 -1.1506766 4.2991924
-0.41028899 -1.2693486 4.2879572
-0.40950257 -1.379818 4.2397881
-0.41709685 -1.5066926 4.2654872
-0.42468822 -1.6335293 4.2911897
-0.42809165 -1.7521824 4.2799563
-0.43986499 -1.8870884 4.3425603
-0.44745034 -2.0138125 4.3682437
-0.45503294 -2.1404994 4.393899
-0.4626134 -2.267148 4.4195585
-0.4618358 -2.3776684 4.3714457
-0.46523726 -2.4962533 4.3602185
-0.46445996 -2.6068234 4.3121009
-0.46786195 -2.7254269 4.3008723
-0.47961807 -2.8599844 4.3634324
-0.48301899 -2.9785521 4.3522072
-0.49476731 -3.1129973 4.4147482
-0.49816728 -3.2315307 4.4035258
-0.50990766 -3.3658609 4.4660316
-0.5133065 -3.4843583 4.454813
-0.51670545 -3.6028557 4.4435945
-0.52010435 -3.7213533 4.4323759
-0.52767098 -3.847677 4.4580202
-0.53106946 -3.9661567 4.4468036
-0.53030115 -4.0768447 4.3987198
-0.5295347 -4.1875672 4.3506336
-0.53709894 -4.3138399 4.3762827
-0.53633356 -4.4245958 4.3281927
-0.27990758 4.9514194 4.1890268
-0.27909929 4.8415771 4.1407018
-0.28673351 4.7134447 4.1664968
-0.29014659 4.5944576 4.1552315
-0.29355961 4.4754672 4.1439662
-0.29697263 4.3564796 4.1327014
-0.30038553 4.2374926 4.1214361
-0.30801386 4.1094694 4.1472111
-0.30721146 3.9995189 4.0989065
-0.31062454 3.8805277 4.0876408
-0.31825125 3.7525613 4.113421
-0.32166368 3.6335897 4.1021576
-0.32507622 3.5146213 4.0908942
-0.32848871 3.3956497 4.0796309
-0.33611298 3.2677708 4.1054192
-0.33952498 3.1488178 4.0941572
-0.34714669 3.020992 4.1199503
-0.3505581 2.9020584 4.1086903
-0.35817546 2.774292 4.1344585
-0.35738105 2.6641901 4.0861702
-0.36920232 2.5276599 4.1489735
-0.36840838 2.4175394 4.1006837
-0.37602323 2.2898607 4.1264601
-0.37943363 2.1709609 4.1152039
-0.38284415 2.0520611 4.1039467
-0.38625455 1.9331613 4.09269
-0.38966507 1.8142616 4.0814333
-0.38887411 1.7040343 4.033133
-0.39648592 1.576462 4.0589199
-0.39989638 1.4575623 4.0476632
-0.40750569 1.330043 4.0734549
-0.41091573 1.2111583 4.0621996
-0.42271751 1.0751199 4.1249886
-0.42612636 0.9562732 4.1137366
-0.42953533 0.8374266 4.1024852
-0.44551581 0.69301879 4.2022238
-0.44892329 0.57422525 4.1909771
-0.45233065 0.45543173 4.1797304
-0.45992422 0.32817516 4.2054558
-0.46333122 0.20939684 4.1942105
-0.47092319 0.082197092 4.2199411
-0.47432965 -0.036562227 4.2086973
-0.48191929 -0.16371265 4.2344327
-0.48950481 -0.29081848 4.2601414
-0.50126857 -0.42623672 4.3228059
-0.50884897 -0.55325252 4.3484926
-0.51225287 -0.67192441 4.3372574
-0.51983058 -0.79888332 4.3629494
-0.52740628 -0.92580289 4.3886309
-0.52246463 -1.0279406 4.3035522
-0.52586865 -1.1466125 4.2923169
-0.53344423 -1.2734995 4.3180161
-0.52850407 -1.3757535 4.2329111
-0.54025114 -1.5108091 4.2955484
-0.54365462 -1.6294661 4.2843151
-0.54705793 -1.748119 4.2730818
-0.55879611 -1.8830262 4.3356876
-0.56636441 -2.0097508 4.361372
-0.57809049 -2.1445205 4.4239144
-0.58149129 -2.2630882 4.4126892
-0.58073181 -2.3736079 4.3645744
-0.58413321 -2.492192 4.3533478
-0.58337396 -2.6027617 4.3052292
-0.59093606 -2.729362 4.330894
-0.59433746 -2.8479466 4.3196669
-0.60189688 -2.9744921 4.3453374
-0.60945624 -3.1010013 4.3710113
-0.61701077 -3.2274714 4.3966584
-0.62456429 -3.353904 4.4223089
-0.63211399 -3.4803007 4.4479475
-0.63551289 -3.598798 4.436729
-0.64306295 -3.7251415 4.4623728
-0.65060908 -3.8514447 4.4879899
-0.64985979 -3.9621003 4.439939
-0.64910859 -4.0727873 4.3918543
-0.65250754 -4.1912856 4.3806357
-0.66005498 -4.3175406 4.4062877
-0.65930539 -4.4282799 4.3581986
-0.39999622 5.0653081 4.2304254
-0.40340883 4.9463353 4.219162
-0.40262085 4.8365068 4.1708679
-0.40603393 4.7175202 4.1596026
-0.4094469 4.5985332 4.1483374
-0.41285998 4.4795418 4.1370721
-0.41627294 4.3605547 4.1258073
-0.42388362 4.2325158 4.1515818
-0.4272961 4.1135435 4.1403179
-0.42651182 4.0035939 4.0920124
-0.42992491 3.8846028 4.0807467
-0.43753356 3.7566354 4.1065283
-0.44094604 3.6376636 4.0952644
-0.44435847 3.5186954 4.0840015
-0.44777095 3.399724 4.0727377
-0.4553771 3.2718439 4.098527
-0.45878905 3.1528912 4.087265
-0.46639371 3.0250647 4.1130595
-0.46980524 2.906131 4.1017995
-0.47740537 2.7783642 4.1275687
-0.48081642 2.6594453 4.1163101
-0.49260086 2.5229368 4.1791177
-0.49182361 2.4128323 4.1308279
-0.49942082 2.2851717 4.1566076
-0.50283068 2.1662912 4.1453528
-0.51042259 2.0386863 4.1711068
-0.50965065 1.9285256 4.1228423
-0.51306069 1.8096409 4.111587
-0.51228642 1.6994333 4.0632877
-0.51988053 1.5718793 4.0890775
-0.52329051 1.4529945 4.0778217
-0.52670044 1.334114 4.0665674
-0.53011048 1.2152293 4.0553117
-0.5460518 1.0706168 4.1550951
-0.54946035 0.95178539 4.1438451
-0.55286872 0.83295768 4.1325951
-0.56462216 0.69708681 4.1953411
-0.56802958 0.57829326 4.1840944
-0.57560641 0.45102084 4.2098188
-0.57901341 0.33224255 4.1985736
-0.58242035 0.21346426 4.1873283
-0.58999419 0.08626391 4.2130599
-0.59340066 -0.032495432 4.2018166
-0.60097319 -0.15964639 4.2275529
-0.60854167 -0.28675285 4.2532625
-0.61610913 -0.41382656 4.2789907
-0.62783241 -0.54918849 4.3416166
-0.63123637 -0.66786063 4.3303814
-0.63879693 -0.79482007 4.3560748
-0.64220035 -0.91347319 4.344842
-0.6414482 -1.0238767 4.2966762
-0.64069581 -1.1343108 4.248508
-0.648256 -1.2612208 4.2742062
-0.64750475 -1.3716891 4.2260346
-0.65506393 -1.498565 4.2517357
-0.65846777 -1.6172367 4.2405005
-0.66187173 -1.735909 4.2292652
-0.67772734 -1.8789647 4.328815
-0.68112969 -1.9975835 4.317585
-0.6928249 -2.1323779 4.3801575
-0.69622624 -2.2509623 4.3689308
-0.69962776 -2.3695471 4.3577042
-0.70302916 -2.4881318 4.346477
-0.70228708 -2.5987003 4.2983575
-0.70983201 -2.7253013 4.3240232
-0.71323341 -2.8438859 4.3127966
-0.72077572 -2.9704318 4.3384676
-0.72831702 -3.0969417 4.3641424
-0.73585439 -3.2234123 4.3897905
-0.74752533 -3.3577454 4.4523005
-0.75505733 -3.4841237 4.4779425
-0.75845575 -3.6026039 4.4667249
-0.76598442 -3.7289248 4.4923415
-0.77351201 -3.8552113 4.517961
-0.77690935 -3.973655 4.5067472
-0.77617812 -4.084312 4.4586954
-0.78370416 -4.2105455 4.4843202
-0.78710163 -4.3289919 4.4731064
-0.78637183 -4.4397001 4.4250498
-0.52269208 4.9504099 4.2122688
-0.52533334 4.7215948 4.152709
-0.52874619 4.6026073 4.1414437
-0.53215933 4.4836164 4.1301785
-0.53557223 4.3646293 4.1189132
-0.53898525 4.2456422 4.1076484
-0.54239815 4.1266546 4.0963831
-0.54581118 4.007668 4.0851183
-0.5492242 3.8886771 4.073853
-0.55263722 3.7696898 4.0625877
-0.55605012 3.650703 4.0513229
-0.55946314 3.5317159 4.0400581
-0.56705421 3.4037981 4.0658445
-0.57464224 3.2759173 4.0916348
-0.57805425 3.1569643 4.0803733
-0.58564085 3.0291378 4.1061683
-0.59322357 2.9013515 4.131937
-0.60080498 2.7736034 4.1577091
-0.6042155 2.6547034 4.1464524
-0.61179554 2.5270081 4.1722298
-0.61103642 2.4169037 4.123939
-0.61861545 2.2892432 4.1497197
-0.62619072 2.1616225 4.1754732
-0.63376397 2.0340362 4.2012305
-0.63300967 1.9238912 4.1529665
-0.63641906 1.8050292 4.1417131
-0.6356653 1.694831 4.0934443
-0.64323795 1.5672982 4.1192064
-0.64664751 1.4484323 4.1079531
-0.65005696 1.329567 4.0966992
-0.65346628 1.210705 4.0854464
-0.6651932 1.0746861 4.1482105
-0.66860175 0.95585459 4.13696
-0.67201012 0.83702689 4.1257105
-0.68788177 0.69264114 4.2254272
-0.69128865 0.57386285 4.2141819
-0.69469553 0.45508832 4.2029371
-0.69810247 0.33630997 4.1916919
-0.70565975 0.20909007 4.2174225
-0.70906621 0.090330742 4.2061791
-0.71247262 -0.028428599 4.1949358
-0.72002798 -0.15558016 4.2206731
-0.72757751 -0.28268722 4.2463837
-0.73512781 -0.40976158 4.2721128
-0.7468158 -0.54512477 4.3347411
-0.75021982 -0.66379684 4.3235059
-0.75776231 -0.79075688 4.3492002
-0.76116574 -0.90941006 4.3379669
-0.75629294 -1.0115553 4.2528682
-0.75969732 -1.1302464 4.2416315
-0.76723945 -1.257157 4.2673302
-0.76650631 -1.3676246 4.2191577
-0.77404737 -1.494501 4.2448597
-0.77745116 -1.613173 4.2336245
-0.78085518 -1.731845 4.2223892
-0.79665852 -1.8749025 4.3219423
-0.80006075 -1.9935213 4.3107119
-0.81172073 -2.1283169 4.3732872
-0.81512213 -2.2469015 4.3620605
-0.81852365 -2.3654864 4.3508339
-0.82192504 -2.4840708 4.3396068
-0.82532644 -2.6026556 4.3283796
-0.83285248 -2.7292364 4.3540487
-0.8362534 -2.8478038 4.3428235
-0.8437773 -2.9743314 4.3684978
-0.85129702 -3.1008198 4.394145
-0.86293495 -3.2351902 4.4566536
-0.87045014 -3.3615861 4.4822946
-0.87796164 -3.4879434 4.5079083
-0.8813597 -3.6064067 4.4966931
-0.88886857 -3.7327085 4.5223122
-0.9004873 -3.866796 4.5847411
-0.90799212 -3.9930046 4.6103382
-0.91138792 -4.1113977 4.5991297
-0.91888893 -4.2375531 4.6247172
-0.92638707 -4.3636699 4.6502929
-0.92978227 -4.482028 4.6390872
-0.64197427 4.9544835 4.2053757
-0.63705271 4.8538032 4.1200166
-0.64463359 4.7256689 4.1458149
-0.64387971 4.6157908 4.0974832
-0.65145969 4.4876914 4.1232843
-0.6548726 4.3687038 4.1120195
-0.65828556 4.2497163 4.1007543
-0.66169858 4.1307292 4.0894895
-0.66094714 4.0207644 4.0411496
-0.66436058 3.9017582 4.0298824
-0.67193753 3.7737648 4.0556936
-0.67535055 3.6547778 4.0444288
-0.67876351 3.5357904 4.033164
-0.68633652 3.407872 4.0589519
-0.69390744 3.2799909 4.084743
-0.69316149 3.1699317 4.0364246
-0.70488793 3.0332108 4.0992775
-0.71245342 2.9054236 4.1250467
-0.72001779 2.7776749 4.1508203
-0.72342837 2.6587746 4.1395636
-0.73098928 2.5310791 4.1653419
-0.73024923 2.4209754 4.1170502
-0.73780942 2.293314 4.1428318
-0.74536729 2.1656928 4.1685867
-0.75292349 2.038106 4.1943445
-0.7521863 1.9279616 4.1460795
-0.75559568 1.8090998 4.1348267
-0.75485921 1.6989021 4.0865564
-0.76241469 1.5713685 4.1123195
-0.76582408 1.4525028 4.1010656
-0.76923358 1.3336374 4.0898123
-0.77678609 1.2061758 4.1155825
-0.78847456 1.0701813 4.1783204
-0.79188251 0.95136869 4.1670723
-0.79115176 0.8410961 4.1188254
-0.80697072 0.6967085 4.2185454
-0.80624294 0.58642942 4.1703286
-0.81378472 0.45915577 4.1960549
-0.81719172 0.34037742 4.1848097
-0.82473075 0.21315688 4.2105417
-0.82813716 0.09439756 4.1992984
-0.83154368 -0.024361782 4.188055
-0.83908093 -0.15151399 4.2137933
-0.84661412 -0.27862164 4.2395048
-0.8541466 -0.40569654 4.2652354
-0.86167574 -0.53273439 4.2909384
-0.86920321 -0.659733 4.3166304
-0.87260711 -0.77840507 4.3053951
-0.87601125 -0.89707702 4.2941599
-0.87529337 -1.0074909 4.2459912
-0.87869775 -1.1261821 4.2347546
-0.88210213 -1.2448692 4.2235179
-0.88550675 -1.3635601 4.2122812
-0.89303076 -1.4904373 4.2379842
-0.89643478 -1.6091093 4.2267489
-0.89983857 -1.7277814 4.2155137
-0.91147459 -1.8627142 4.2781544
-0.91487753 -1.9813503 4.2669225
-0.92650664 -2.1161702 4.3295279
-0.92990851 -2.234772 4.3182993
-0.93741941 -2.3614254 4.3439627
-0.94082081 -2.4800098 4.332736
-0.94422233 -2.5985949 4.3215089
-0.95173037 -2.7251761 4.3471789
-0.95513141 -2.8437438 4.3359537
-0.96263802 -2.9702716 4.361629
-0.9701407 -3.096761 4.3872776
-0.9817431 -3.231132 4.4497876
-0.98924065 -3.3575287 4.47543
-0.99673569 -3.4838867 4.5010448
-1.0001338 -3.60235 4.4898295
-1.0076258 -3.7286527 4.51545
-1.0232987 -3.8705571 4.6146879
-1.0266948 -3.98895 4.6034789
-1.0341793 -4.1151233 4.629066
-1.0498314 -4.2567749 4.7281904
-1.0573071 -4.382834 4.7537422
-1.0607005 -4.5011396 4.7425413
-1.0518456 -4.5963321 4.6210246
-0.75710917 4.9677181 4.1614504
-0.75637031 4.8578782 4.1131215
-0.76393497 4.729744 4.1389203
-0.76319706 4.6198664 4.0905881
-0.77076101 4.4917655 4.1163902
-0.77417397 4.3727789 4.105125
-0.77758682 4.2537913 4.0938601
-0.7809999 4.1348042 4.0825949
-0.78026462 4.0248394 4.0342546
-0.78367817 3.9058335 4.0229874
-0.7912389 3.7778394 4.0487995
-0.79465199 3.6588523 4.0375347
-0.79391861 3.5488155 3.9891872
-0.80561864 3.4119458 4.0520587
-0.81317174 3.2840645 4.0778508
-0.81244361 3.1740055 4.029532
-0.82413507 3.0372832 4.0923867
-0.8316834 2.9094963 4.1181574
-0.83922994 2.7817464 4.1439314
-0.84264028 2.6628463 4.1326747
-0.8501842 2.5351503 4.1584539
-0.84946132 2.4250469 4.1101613
-0.85700417 2.297385 4.1359439
-0.86454415 2.1697633 4.1616993
-0.872082 2.042176 4.187459
-0.87136304 1.9320321 4.1391926
-0.87477243 1.8131702 4.1279392
-0.87818182 1.6943047 4.1166859
-0.88571787 1.5667894 4.1424522
-0.88912666 1.4479429 4.1312003
-0.89253581 1.3290925 4.1199484
-0.90006781 1.2016519 4.1456909
-0.9075979 1.0742499 4.1714368
-0.91100585 0.9554373 4.1601882
-0.91441381 0.83662492 4.1489401
-0.92605901 0.70077592 4.2116637
-0.92534924 0.59049737 4.1634459
-0.93287289 0.46322313 4.1891732
-0.93627989 0.34444481 4.177928
-0.94380212 0.21722367 4.203661
-0.94720829 0.098464355 4.1924176
-0.95061481 -0.020294994 4.1811743
-0.95813382 -0.14744776 4.2069135
-0.96153963 -0.26618811 4.195672
-0.96905541 -0.39328116 4.221386
-0.97657001 -0.52034152 4.2471189
-0.98408175 -0.64735717 4.2728252
-0.99159062 -0.77434117 4.2985191
-0.99089074 -0.88473928 4.250351
-0.99018979 -0.99516624 4.2021656
-0.99359477 -1.1138763 4.1909266
-1.0011039 -1.2408048 4.2166409
-1.0004047 -1.3512886 4.1684499
-1.0120142 -1.4863734 4.2311087
-1.0113173 -1.596874 4.1829309
-1.0147218 -1.715565 4.1716938
-1.0304238 -1.8586513 4.2712803
-1.0338267 -1.9772874 4.2600489
-1.0413247 -2.104018 4.2857361
-1.0488213 -2.2307105 4.3114276
-1.0522233 -2.3493125 4.3001995
-1.0556253 -2.4679143 4.2889709
-1.0631183 -2.5945339 4.3146381
-1.0706092 -2.7211156 4.3403096
-1.0740104 -2.8396833 4.3290844
-1.0814986 -2.9662118 4.3547602
-1.0848991 -3.0847623 4.3435364
-1.0964689 -3.2191553 4.4060631
-1.1080317 -3.3534713 4.4685655
-1.1155092 -3.47983 4.4941816
-1.1189071 -3.5982933 4.4829659
-1.1263819 -3.7245967 4.5085869
-1.1379291 -3.8586864 4.5710196
-1.1453985 -3.9848955 4.5966191
-1.1528667 -4.1110697 4.6222072
-1.1765941 -4.2682271 4.794827
-1.1799871 -4.3865156 4.783628
-1.1874431 -4.5125198 4.8091707
-1.1786464 -4.6076913 4.6877289
-0.88323438 4.7338185 4.1320262
-0.88251567 4.6239414 4.083693
-0.89418876 4.486752 4.1465359
-0.89347339 4.376853 4.0982313
-0.89688635 4.2578659 4.086966
-0.90029931 4.1388788 4.0757012
-0.89958322 4.0289145 4.0273595
-0.90299666 3.9099088 4.0160928
-0.90641022 3.7909029 4.0048261
-0.90982378 3.6718967 3.9935591
-0.91323721 3.5528905 3.9822922
-0.9207772 3.4249527 4.0081105
-0.92831349 3.2970514 4.0339022
-0.93172598 3.1780796 4.0226388
-0.93926084 3.0502319 4.0484352
-0.94679451 2.9224226 4.0742354
-0.95432425 2.7946527 4.100009
-0.9577353 2.6757343 4.0887508
-0.96526253 2.5480185 4.1145287
-0.96455717 2.4379008 4.0662336
-0.97208357 2.3102193 4.0920153
-0.97960877 2.1825747 4.1178007
-0.98713017 2.0549679 4.143559
-0.99053955 1.9361025 4.1323056
-0.99394894 1.8172406 4.1210527
-0.99735856 1.6983752 4.1097989
-1.0048774 1.5708593 4.1355662
-1.0082864 1.4520127 4.1243143
-1.0116954 1.3331622 4.1130624
-1.0151042 1.2143154 4.1018105
-1.0267222 1.0783185 4.1645527
-1.0301303 0.95950592 4.1533046
-1.0335381 0.84069347 4.142056
-1.045148 0.7048434 4.2047815
-1.0485551 0.58606505 4.1935363
-1.051962 0.46729055 4.1822915
-1.0594665 0.3400498 4.2080235
-1.0628729 0.2212905 4.1967802
-1.0662795 0.10253118 4.1855364
-1.0696859 -0.016228177 4.1742935
-1.0771878 -0.14338157 4.2000332
-1.0846859 -0.27049041 4.2257476
-1.0880913 -0.38921559 4.2145071
-1.0955889 -0.51627642 4.2402411
-1.1030823 -0.64329278 4.2659483
-1.1105742 -0.77027744 4.2916436
-1.1139783 -0.88894933 4.2804084
-1.1132956 -0.99936205 4.2322378
-1.1167001 -1.1180533 4.2210007
-1.12419 -1.2449654 4.2467027
-1.123509 -1.3554313 4.1985273
-1.1309978 -1.4823097 4.2242327
-1.1344018 -1.6009816 4.2129974
-1.1378056 -1.7196536 4.2017622
-1.149372 -1.8545889 4.2644067
-1.152775 -1.973225 4.2531748
-1.1602558 -2.099956 4.2788634
-1.1677355 -2.2266493 4.3045559
-1.1752114 -2.3533039 4.3302212
-1.1786128 -2.4718885 4.3189945
-1.1820143 -2.5904732 4.3077674
-1.1894872 -2.7170558 4.3334398
-1.1928881 -2.835623 4.3222146
-1.2003595 -2.9621527 4.3478918
-1.20376 -3.080703 4.336668
-1.2152945 -3.2150967 4.3991957
-1.2268231 -3.3494143 4.4617004
-1.2302217 -3.4678948 4.4504833
-1.2376801 -3.5942366 4.4761024
-1.245138 -3.7205405 4.5017247
-1.2566509 -3.8546314 4.5641589
-1.2600474 -3.9730418 4.552949
-1.2715514 -4.1070156 4.6153488
-1.2951933 -4.2641768 4.7879729
-1.2985862 -4.3824654 4.7767744
-1.3019792 -4.5007544 4.7655754
-1.2972807 -4.6036391 4.6808729
-1.0025338 4.7378931 4.1251326
-1.0059468 4.618906 4.1138673
-1.00936 4.4999151 4.102602
-1.0127729 4.380928 4.0913372
-1.0161858 4.261941 4.0800724
-1.0195987 4.1429539 4.0688071
-1.0189006 4.03299 4.0204644
-1.0223142 3.9139838 4.0091972
-1.0257276 3.7949779 3.9979308
-1.0291411 3.675972 3.9866641
-1.0325547 3.5569654 3.9753971
-1.0400767 3.4290271 4.0012169
-1.0475957 3.3011258 4.0270095
-1.0510083 3.1821539 4.0157456
-1.058526 3.0543051 4.0415435
-1.061938 2.9353521 4.0302815
-1.069453 2.8075609 4.0560846
-1.0728644 2.6886268 4.0448246
-1.0803745 2.5608876 4.0706019
-1.0796874 2.4507556 4.0223041
-1.0871964 2.3230541 4.0480852
-1.0947061 2.1953905 4.0738697
-1.1022127 2.0677614 4.099658
-1.1056225 1.9488808 4.0884027
-1.1090324 1.829996 4.0771475
-1.1124425 1.7111152 4.0658927
-1.1199446 1.5835798 4.0916586
-1.1233541 1.4647142 4.0804052
-1.1267636 1.3458486 4.0691519
-1.1342638 1.2183855 4.0949249
-1.1458464 1.0823871 4.1576691
-1.1451685 0.97213143 4.1094208
-1.148577 0.85330385 4.0981708
-1.1642371 0.70891076 4.1978998
-1.1676443 0.59013247 4.1866546
-1.1751322 0.46287596 4.2123861
-1.1785386 0.34411666 4.2011428
-1.181945 0.22535735 4.1898994
-1.1853516 0.10659801 4.1786556
-1.188758 -0.012161322 4.1674123
-1.1962415 -0.13931534 4.1931539
-1.2037227 -0.26642478 4.2188687
-1.2071282 -0.3851499 4.2076283
-1.2146076 -0.51221144 4.2333632
-1.2220849 -0.63922834 4.2590714
-1.2295576 -0.7662136 4.2847681
-1.2329615 -0.88488555 4.2735329
-1.2322983 -0.99529773 4.2253609
-1.2357028 -1.1139886 4.2141242
-1.2431734 -1.2409019 4.2398272
-1.2425115 -1.3513669 4.1916504
-1.2499812 -1.4782459 4.2173567
-1.2533849 -1.5969179 4.2061214
-1.2567891 -1.7155899 4.1948862
-1.2683203 -1.8505263 4.2575331
-1.2717233 -1.9691623 4.2463012
-1.2791868 -2.0958941 4.2719908
-1.2866488 -2.2225878 4.2976842
-1.2941073 -2.3492429 4.3233509
-1.2975088 -2.4678273 4.3121238
-1.304965 -2.5944293 4.3377953
-1.3083659 -2.7129953 4.3265705
-1.311767 -2.831563 4.3153448
-1.3192211 -2.9580932 4.3410234
-1.3226215 -3.0766437 4.3297997
-1.3341208 -3.2110386 4.3923292
-1.3415676 -3.3374562 4.4179726
-1.3490119 -3.4638374 4.4436188
-1.3524104 -3.5823178 4.4324021
-1.3598512 -3.7086413 4.4580235
-1.3713317 -3.8427539 4.5204735
-1.3747284 -3.9611804 4.5092611
-1.3821646 -4.0873966 4.5348778
-1.3976674 -4.2290998 4.634068
-1.4050947 -4.3552003 4.6596498
-1.4125202 -4.4812641 4.6852198
-1.4078523 -4.5841727 4.6004519
-1.1218342 4.7419672 4.1182384
-1.1252471 4.6229801 4.1069732
-1.1286602 4.5039892 4.0957079
-1.1320732 4.3850021 4.0844431
-1.1354861 4.2660151 4.0731783
-1.1388991 4.147028 4.061913
-1.138218 4.037065 4.0135694
-1.1416316 3.9180589 4.0023022
-1.145045 3.799053 3.9910357
-1.1484587 3.6800468 3.979769
-1.1518722 3.5610409 3.968502
-1.159377 3.4331019 3.9943228
-1.1668789 3.3051996 4.0201163
-1.1702917 3.1862278 4.008853
-1.177791 3.0583787 4.0346513
-1.1812029 2.9394259 4.0233893
-1.1887002 2.8116341 4.0491934
-1.1921115 2.6926999 4.0379333
-1.1996052 2.56496 4.0637121
-1.1989347 2.4548283 4.0154133
-1.206427 2.3271265 4.0411954
-1.2098382 2.2082074 4.0299368
-1.2214073 2.0718324 4.0927696
-1.2207386 1.9616628 4.0444674
-1.2241492 1.8427627 4.0332108
-1.2316372 1.7151864 4.0590048
-1.2391212 1.5876502 4.0847716
-1.2425307 1.4687846 4.0735183
-1.2459402 1.3499191 4.0622649
-1.2534224 1.222455 4.0880384
-1.2649708 1.0864556 4.150785
-1.2683789 0.96764314 4.1395364
-1.2717868 0.84883076 4.1282883
-1.2833263 0.71297824 4.1910181
-1.2907966 0.58570212 4.2167487
-1.294203 0.46694279 4.2055054
-1.3016717 0.33971986 4.2312412
-1.3050777 0.22097954 4.2199993
-1.3084837 0.10223539 4.2087574
-1.3118895 -0.016504958 4.197516
-1.3193531 -0.14363399 4.2232299
-1.3268163 -0.27073026 4.2489629
-1.3302212 -0.38943642 4.2377243
-1.3376802 -0.51647675 4.2634315
-1.3451372 -0.6434778 4.2891273
-1.3525921 -0.77044082 4.3148265
-1.3519452 -0.88082176 4.2666569
-1.3553491 -0.99949378 4.2554216
-1.3587528 -1.1181659 4.2441864
-1.3621569 -1.2368379 4.2329512
-1.3615113 -1.3473024 4.1847739
-1.3730127 -1.4823668 4.2474256
-1.3723687 -1.5928539 4.1992459
-1.3757728 -1.711526 4.1880107
-1.3913133 -1.8545924 4.2875786
-1.3947158 -1.9732114 4.2763486
-1.4021598 -2.0999246 4.3020411
-1.4096019 -2.2265973 4.3277068
-1.4130034 -2.3451822 4.3164797
-1.4164048 -2.4637668 4.305253
-1.423844 -2.5903692 4.3309255
-1.4272448 -2.7089353 4.3197002
-1.4306457 -2.8275027 4.308475
-1.438082 -2.9540331 4.3341541
-1.4455152 -3.0805249 4.3598065
-1.4529464 -3.20698 4.3854628
-1.4603758 -3.3333981 4.4111066
-1.4678032 -3.4597805 4.4367542
-1.4752275 -3.5861235 4.4623747
-1.48265 -3.7124286 4.487999
-1.4860476 -3.8308744 4.4767857
-1.4934673 -3.9571245 4.5023994
-1.5008855 -4.0833421 4.528017
-1.5123193 -4.2172852 4.5904245
-1.5157148 -4.3356605 4.5792174
-1.5191101 -4.4540348 4.5680103
-1.5184902 -4.5646982 4.5199966
-1.2411344 4.7460423 4.1113443
-1.2445474 4.6270552 4.1000795
-1.2479606 4.5080643 4.0888138
-1.2513735 4.3890772 4.077549
-1.2588614 4.261034 4.1033306
-1.262274 4.1420622 4.0920668
-1.2616124 4.0321159 4.0437541
-1.2650256 3.9131246 4.0324888
-1.2684385 3.7941375 4.0212235
-1.2718514 3.6751506 4.0099587
-1.2752645 3.5561633 3.9986939
-1.2827488 3.428242 4.0244865
-1.2861612 3.3092737 4.0132232
-1.2895738 3.1903017 4.0019598
-1.2970552 3.0624523 4.0277596
-1.3004675 2.9434993 4.0164976
-1.307947 2.8157065 4.0423026
-1.3113585 2.6967728 4.0310426
-1.3188353 2.569032 4.0568223
-1.3181815 2.4589012 4.008522
-1.3256571 2.3311982 4.0343056
-1.3290682 2.2122796 4.0230465
-1.33654 2.0846341 4.0488348
-1.3399506 1.9657342 4.0375786
-1.343361 1.8468344 4.0263219
-1.3548895 1.7105863 4.089138
-1.362355 1.5830688 4.1149082
-1.3657639 1.464222 4.1036568
-1.3691729 1.3453716 4.0924048
-1.3766346 1.217929 4.1181512
-1.3840942 1.0905243 4.1439013
-1.3915529 0.96315372 4.1696548
-1.3949604 0.84436017 4.1584082
-1.4064614 0.7085284 4.2211113
-1.4098676 0.58976895 4.209868
-1.4173188 0.4625302 4.2356033
-1.4207247 0.34378606 4.2243614
-1.4281735 0.21660332 4.2500715
-1.431579 0.097878166 4.2388315
-1.4349844 -0.020846993 4.227591
-1.4383897 -0.13956836 4.216351
-1.4458351 -0.26666528 4.2420845
-1.4532773 -0.39372137 4.2677917
-1.4566817 -0.51241237 4.2565546
-1.4641207 -0.63941389 4.2822514
-1.4715585 -0.76637757 4.3079519
-1.4749619 -0.88503069 4.2967186
-1.4743323 -0.99543017 4.2485461
-1.4777365 -1.114102 4.2373109
-1.4811404 -1.2327741 4.2260756
-1.4805129 -1.3432381 4.177897
-1.491979 -1.4783034 4.240551
-1.4913521 -1.5887902 4.1923704
-1.4987859 -1.7156135 4.2180839
-1.5142702 -1.8586596 4.3176265
-1.513646 -1.9691492 4.2694759
-1.5250974 -2.1039517 4.3320627
-1.5325191 -2.2306063 4.3577318
-1.53592 -2.349174 4.3465066
-1.5393211 -2.4677417 4.3352814
-1.542722 -2.5863092 4.3240561
-1.5501418 -2.7128744 4.3497329
-1.5535421 -2.831425 4.3385096
-1.5609581 -2.9579339 4.364161
-1.5683724 -3.0844073 4.3898163
-1.5757855 -3.2108431 4.4154596
-1.583196 -3.3372424 4.4411068
-1.5906019 -3.463604 4.4667268
-1.594 -3.5820668 4.4555111
-1.6054116 -3.7162156 4.517962
-1.6088086 -3.8346429 4.5067501
-1.6122055 -3.9530694 4.4955382
-1.6236094 -4.0870724 4.5579724
-1.6350055 -4.220994 4.6203532
-1.6384003 -4.3393512 4.6091475
-1.6417953 -4.4577098 4.5979419
-1.6411922 -4.5683565 4.5499449
-1.3644937 4.7409883 4.1414909
-1.3638477 4.6311297 4.0931854
-1.3713188 4.5030479 4.1189642
-1.3747312 4.3840799 4.1077008
-1.3822007 4.2560549 4.1334848
-1.3856126 4.1371017 4.1222229
-1.3849688 4.0271678 4.0739107
-1.3843259 3.9171996 4.0255947
-1.3917936 3.7892277 4.051384
-1.3952062 3.6702559 4.0401201
-1.3986186 3.5512877 4.0288572
-1.4060845 3.4233844 4.0546527
-1.4094964 3.3044314 4.0433908
-1.4129084 3.1854782 4.0321293
-1.4203715 3.0576477 4.0579314
-1.4237828 2.9387136 4.0466714
-1.4312421 2.8109417 4.0724492
-1.434653 2.692023 4.0611906
-1.442111 2.5643051 4.0869732
-1.4414749 2.4541895 4.0386739
-1.4489321 2.3265054 4.0644598
-1.4523424 2.2076056 4.0532031
-1.4597958 2.0799744 4.0789938
-1.4591634 1.969806 4.0306892
-1.4666157 1.842209 4.0564833
-1.474066 1.7146569 4.0822515
-1.4815146 1.5871387 4.1080222
-1.4849236 1.4682919 4.0967708
-1.4883326 1.3494415 4.0855188
-1.495777 1.2219982 4.1112661
-1.5072515 1.0860152 4.1740189
-1.5106589 0.96722174 4.1627722
-1.5140665 0.84842825 4.1515255
-1.5295618 0.70408106 4.2512074
-1.5329677 0.58533692 4.2399654
-1.5363736 0.46659648 4.2287235
-1.5438039 0.33939409 4.2544327
-1.5472094 0.22066894 4.2431927
-1.5506147 0.10194377 4.2319527
-1.5540203 -0.016781375 4.2207122
-1.5614489 -0.14389402 4.2464452
-1.5648538 -0.26260021 4.2352071
-1.5722779 -0.38965705 4.2609148
-1.5797002 -0.51667804 4.2866106
-1.5831043 -0.63535005 4.2753754
-1.5905248 -0.76231432 4.3010769
-1.5899121 -0.87269431 4.2529054
-1.593316 -0.99136621 4.2416701
-1.59672 -1.1100384 4.2304354
-1.6001239 -1.2287104 4.2191997
-1.5995134 -1.3391736 4.1710205
-1.6109453 -1.4742403 4.233676
-1.6103358 -1.5847265 4.1854944
-1.6177522 -1.7115501 4.2112088
-1.6291747 -1.8464683 4.2738333
-1.6325771 -1.9650873 4.2626033
-1.639987 -2.0918016 4.2882977
-1.6473938 -2.2184756 4.3139653
-1.6507953 -2.3370605 4.3027382
-1.6541967 -2.4556453 4.2915115
-1.6616006 -2.5822484 4.3171864
-1.6690027 -2.7088146 4.342864
-1.672403 -2.8273649 4.3316402
-1.6798015 -2.9538751 4.3572931
-1.6832013 -3.0724068 4.3460717
-1.6945938 -3.2067852 4.4085941
-1.7019863 -3.3331854 4.4342422
-1.709376 -3.4595468 4.4598632
-1.7127738 -3.5780101 4.4486475
-1.7201622 -3.7043164 4.4742737
-1.7275475 -3.8305874 4.4998884
-1.7269571 -3.9412067 4.4518466
-1.7383281 -4.075232 4.5142965
-1.7496914 -4.2091775 4.5767074
-1.7530869 -4.3275533 4.5655003
-1.7525009 -4.4381967 4.5174866
-1.7519137 -4.548872 4.4694548
-1.483777 4.7450619 4.1345978
-1.4831471 4.6352043 4.0862913
-1.490602 4.5071225 4.112071
-1.4940145 4.388154 4.1008077
-1.5014659 4.2601285 4.1265926
-1.5048778 4.1411757 4.1153312
-1.504252 4.0312419 4.0670176
-1.5036253 3.9212742 4.0187006
-1.5110768 3.7933021 4.0444908
-1.5144894 3.6743302 4.033227
-1.5179018 3.5553617 4.0219641
-1.5253499 3.427458 4.0477605
-1.5327954 3.299592 4.0735607
-1.5321738 3.1895518 4.0252371
-1.5396184 3.0617201 4.0510406
-1.5430298 2.9427862 4.0397806
-1.5504721 2.8150141 4.0655589
-1.5579122 2.6872764 4.0913405
-1.5613228 2.5683765 4.0800838
-1.5607051 2.4582615 4.0317841
-1.5681437 2.3305769 4.0575705
-1.5715542 2.2116768 4.0463142
-1.5789907 2.0840456 4.0721059
-1.5824004 1.9651648 4.0608511
-1.5858105 1.8462801 4.0495954
-1.5932428 1.7187271 4.0753646
-1.6006732 1.5912085 4.1011362
-1.6081007 1.4637266 4.1268816
-1.6074911 1.3535113 4.0786328
-1.6149175 1.2260674 4.1043811
-1.626359 1.0900832 4.1671357
-1.6337788 0.96273333 4.1928625
-1.6331737 0.85249627 4.1446424
-1.6486155 0.70814723 4.2443275
-1.6520215 0.58940309 4.2330856
-1.6554273 0.47066265 4.2218437
-1.6588334 0.35191855 4.2106018
-1.6662452 0.22473454 4.2363138
-1.6696507 0.10600938 4.2250738
-1.6730562 -0.012715787 4.2138338
-1.6764615 -0.13143715 4.2025938
-1.6838725 -0.25853521 4.2283292
-1.6872773 -0.37724137 4.2170906
-1.694684 -0.50428343 4.2428012
-1.6980883 -0.62297064 4.2315645
-1.7054917 -0.74995834 4.2572646
-1.7048973 -0.86035287 4.2090907
-1.7083017 -0.97903997 4.197854
-1.7117063 -1.097731 4.1866169
-1.7151105 -1.2164183 4.1753807
-1.7145169 -1.3268985 4.127183
-1.725915 -1.4619905 4.1898537
-1.7293192 -1.5806625 4.1786184
-1.7327231 -1.6993345 4.1673832
-1.7481059 -1.8424064 4.2669606
-1.7475177 -1.9529117 4.2188063
-1.758901 -2.0877402 4.2814264
-1.7662898 -2.2144148 4.3070946
-1.7696913 -2.3329999 4.2958679
-1.7730926 -2.4515843 4.2846408
-1.7804786 -2.5781887 4.3103166
-1.7878631 -2.7047553 4.3359952
-1.7912637 -2.8233056 4.3247719
-1.7986454 -2.949816 4.3504257
-1.8060247 -3.0762901 4.3760834
-1.8134023 -3.2027271 4.4017282
-1.8247524 -3.3370268 4.4642153
-1.8321234 -3.4633698 4.4898391
-1.8355209 -3.581816 4.4786253
-1.8428894 -3.7081046 4.5042391
-1.8502563 -3.8343575 4.5298562
-1.8536528 -3.9527667 4.5186458
-1.8610159 -4.0789633 4.5442529
-1.8723415 -4.2128873 4.6066375
-1.8757364 -4.3312445 4.5954323
-1.8751689 -4.4418736 4.5474348
-1.8745993 -4.5525355 4.4994183
-1.6030594 4.749136 4.1277046
-1.6024477 4.6392789 4.0793972
-1.6098843 4.5111966 4.1051779
-1.613297 4.3922276 4.093915
-1.62073 4.2642016 4.1197009
-1.6241421 4.1452489 4.108439
-1.6235344 4.035316 4.0601244
-1.6269468 3.9163442 4.048861
-1.6343777 3.7883902 4.0746536
-1.63779 3.6694374 4.0633922
-1.6371841 3.5594358 4.0150709
-1.6486322 3.4225991 4.0779295
-1.6520436 3.3036652 4.0666699
-1.6554549 3.1847308 4.0554099
-1.6628802 3.0569203 4.0811858
-1.6662912 2.9380012 4.0699272
-1.6737136 2.8102477 4.0957084
-1.6811354 2.682528 4.1214933
-1.6845454 2.5636473 4.1102386
-1.6839451 2.4535482 4.0619383
-1.6913651 2.3258817 4.087728
-1.6947751 2.207001 4.0764732
-1.7021911 2.0793905 4.1022377
-1.7015948 1.9692358 4.0539632
-1.705005 1.850351 4.0427074
-1.7164236 1.7141248 4.1055021
-1.7198327 1.5952781 4.0942507
-1.7272421 1.4677957 4.1199965
-1.7306507 1.348968 4.1087465
-1.7380582 1.2215427 4.1344981
-1.7494611 1.0855789 4.1972256
-1.7528681 0.96680075 4.1859808
-1.7562748 0.84802616 4.174736
-1.7676686 0.7122134 4.2374477
-1.7710747 0.59346926 4.2262058
-1.7744805 0.47472885 4.2149639
-1.7778865 0.35598475 4.203722
-1.785282 0.22880018 4.229435
-1.7886873 0.11007502 4.218195
-1.7920929 -0.0086501241 4.206955
-1.799486 -0.135764 4.2326899
-1.8028911 -0.2544702 4.2214518
-1.8102795 -0.38152814 4.2471614
-1.8136839 -0.50021917 4.2359242
-1.817088 -0.61890632 4.2246876
-1.8284568 -0.75418788 4.2873278
-1.8278803 -0.86456645 4.2391539
-1.8273014 -0.97497565 4.1909771
-1.8307062 -1.0936667 4.1797404
-1.8380917 -1.2205827 4.2054482
-1.8375148 -1.3310449 4.1572671
-1.8488773 -1.4661139 4.2199268
-1.8522807 -1.5847707 4.208693
-1.8556842 -1.7034237 4.1974597
-1.8670372 -1.8383442 4.2600875
-1.8664657 -1.9488491 4.2119327
-1.8738421 -2.0755839 4.237627
-1.8812157 -2.2022805 4.2633257
-1.8885869 -2.3289387 4.2889972
-1.8919884 -2.4475234 4.27777
-1.8993574 -2.5741284 4.3034468
-1.9067253 -2.7006955 4.3291264
-1.9101256 -2.8192458 4.317903
-1.9214517 -2.9537177 4.3804369
-1.9248511 -3.072232 4.3692164
-1.9361705 -3.2065904 4.4317298
-1.9435257 -3.3329701 4.4573512
-1.9548334 -3.4671931 4.5198016
-1.9582306 -3.5856204 4.5085897
-1.9655803 -3.71189 4.5342064
-1.9729277 -3.8381226 4.5598111
-1.976324 -3.9565156 4.5486021
-1.9836687 -4.0826936 4.5741973
-1.991011 -4.2088346 4.5997801
-1.9983517 -4.3349371 4.6253672
-1.9938546 -4.43782 4.540576
-1.9933034 -4.548481 4.4925585
-1.7263472 4.7440829 4.1578555
-1.7257541 4.6342416 4.1095486
-1.733171 4.5061774 4.1353321
-1.7325792 4.3963017 4.0870218
-1.7399946 4.2682753 4.1128087
-1.7474099 4.1402831 4.1385994
-1.7428166 4.0393901 4.0532312
-1.7462293 3.920418 4.0419679
-1.7536429 3.7924638 4.0677619
-1.7570549 3.6735106 4.0565
-1.7564665 3.5635097 4.0081778
-1.7678789 3.4266715 4.0710387
-1.7712904 3.3077374 4.0597787
-1.7747017 3.1888037 4.0485191
-1.7821091 3.0609927 4.074296
-1.78552 2.9420738 4.0630374
-1.7929255 2.8143194 4.0888195
-1.7963361 2.6954195 4.0775628
-1.803739 2.5677183 4.1033506
-1.803157 2.4576201 4.0550494
-1.8065673 2.3387206 4.0437927
-1.8099781 2.2198205 4.032536
-1.8173789 2.0921874 4.0583301
-1.8207892 1.9733068 4.0470753
-1.8241991 1.8544221 4.03582
-1.8315951 1.7268682 4.0615907
-1.8389922 1.5993481 4.0873647
-1.8463842 1.4718651 4.1131115
-1.8458101 1.3616507 4.0648608
-1.8532013 1.234206 4.0906115
-1.8685499 1.0896463 4.1903439
-1.8719569 0.97086823 4.1790991
-1.8753637 0.85209358 4.1678538
-1.8867224 0.71627969 4.2305679
-1.8901285 0.59753549 4.219326
-1.8975071 0.47031611 4.2450366
-1.9009122 0.35159096 4.2337966
-1.904318 0.23286578 4.2225561
-1.9077233 0.11414063 4.2113161
-1.9151002 -0.012992814 4.2370505
-1.9185051 -0.131699 4.225812
-1.9258772 -0.2587727 4.2515216
-1.9292818 -0.37746367 4.2402844
-1.9366516 -0.50448656 4.2659836
-1.9400555 -0.62315869 4.2547483
-1.9474231 -0.75012463 4.2804527
-1.9468638 -0.86050278 4.2322779
-1.9502674 -0.97917479 4.2210431
-1.9536713 -1.0978469 4.2098079
-1.9570755 -1.2165189 4.1985726
-1.9604791 -1.3351909 4.1873374
-1.9678437 -1.4620506 4.2130518
-1.9712471 -1.5807074 4.2018185
-1.9746505 -1.6993605 4.1905847
-1.985968 -1.8342822 4.2532148
-1.9854137 -1.9447867 4.2050591
-1.9967271 -2.0796175 4.2676826
-2.0040822 -2.2062931 4.2933531
-2.0114331 -2.3329329 4.3190274
-2.018785 -2.4595363 4.3447051
-2.0221853 -2.5780849 4.3334818
-2.0334787 -2.7126281 4.3960109
-2.0368781 -2.8311448 4.3847904
-2.0442209 -2.9576166 4.4104342
-2.0476198 -3.0761142 4.3992157
-2.0549612 -3.2025335 4.4248652
-2.0622988 -3.3289135 4.4504876
-2.0735726 -3.4631374 4.5129399
-2.0769696 -3.5815647 4.5017281
-2.0882359 -3.7156756 4.5641603
-2.0916314 -3.8340693 4.5529513
-2.0989599 -3.9602644 4.5785456
-2.102355 -4.0786405 4.5673385
-2.1057506 -4.1970162 4.5561314
-2.1130743 -4.3231387 4.581717
-2.1125412 -4.4337654 4.5337172
-2.1120071 -4.5444269 4.4856987
-2.1154027 -4.6628199 4.4744902
-1.8456124 4.748157 4.1509633
-1.8450361 4.6383166 4.1026554
-1.8524364 4.5102506 4.1284399
-1.8558484 4.3912983 4.1171784
-1.8632454 4.2632899 4.1429682
-1.8666569 4.1443558 4.1317081
-1.8620991 4.0434637 4.0463386
-1.8694962 3.9154899 4.0721312
-1.8729082 3.7965369 4.0608697
-1.8763205 3.6775839 4.0496078
-1.8797323 3.5586312 4.0383463
-1.8911058 3.4218171 4.101181
-1.8945171 3.3028984 4.0899224
-1.8979276 3.1839836 4.0786643
-1.9053167 3.0561905 4.104444
-1.9087268 2.9372907 4.0931873
-1.916114 2.8095548 4.1189728
-1.9195241 2.6906703 4.1077175
-1.9269062 2.5629902 4.1334772
-1.9223689 2.4616916 4.0481606
-1.9297537 2.334024 4.0739522
-1.9331635 2.2151434 4.0626974
-1.9405445 2.0875313 4.0884638
-1.9439539 1.9686657 4.0772104
-1.947363 1.8498039 4.0659571
-1.9547416 1.7222644 4.0917306
-1.9621171 1.5947657 4.1174769
-1.9694909 1.4673046 4.1432271
-1.9689339 1.3571066 4.0949764
-1.9763068 1.2296798 4.1207304
-1.9876381 1.0937138 4.1834621
-1.9910451 0.97493553 4.1722169
-1.9944519 0.85616112 4.1609721
-2.0097318 0.71183205 4.2606382
-2.0131373 0.59310687 4.2493982
-2.0165429 0.47438172 4.2381577
-2.0199485 0.35565656 4.2269177
-2.0233536 0.23693138 4.2156773
-2.0307136 0.1097822 4.2414112
-2.0341187 -0.0089277998 4.2301726
-2.0375237 -0.12763396 4.2189345
-2.0409284 -0.24634013 4.207696
-2.0443335 -0.36504632 4.1964574
-2.0516877 -0.49209026 4.2221708
-2.0550919 -0.61077738 4.2109342
-2.0663886 -0.74606144 4.2735782
-2.0658469 -0.85643876 4.2254019
-2.0653052 -0.96684688 4.1772237
-2.0726547 -1.0937829 4.2029319
-2.0760589 -1.2124552 4.1916966
-2.0794625 -1.331127 4.1804619
-2.0868092 -1.4579873 4.2061772
-2.0862703 -1.5684711 4.1579914
