# .PCD v0.7 - Point Cloud Data file format
VERSION 0.7
FIELDS x y z
SIZE 4 4 4
TYPE F F F
COUNT 1 1 1
WIDTH 1537
HEIGHT 1
VIEWPOINT 0 0 0 1 0 0 0
POINTS 1537
DATA ascii
-19.565182 2.6960838 0.051051974
-19.567225 2.7093916 0.17134452
-19.570639 2.7591596 0.2800889
-19.574055 2.8089268 0.38883138
-19.57884 2.8951237 0.48595965
-19.582254 2.9448836 0.59468627
-19.585669 2.9946444 0.70341504
-19.589081 3.0444043 0.81214166
-19.592495 3.0941644 0.92086864
-19.594545 3.107532 1.0412915
-19.599325 3.1936841 1.1383224
-19.602741 3.2434452 1.247051
-19.684536 2.6880724 0.050970078
-19.686594 2.7013793 0.1712625
-19.690008 2.7511473 0.28000712
-19.693424 2.8009145 0.38874936
-19.698193 2.8871124 0.48587775
-19.701609 2.9368725 0.59460485
-19.705021 2.9866333 0.7033329
-19.708437 3.0363932 0.81205988
-19.711849 3.0861533 0.92078686
-19.715265 3.1359131 1.0295136
-19.72003 3.2220592 1.1265293
-19.722095 3.2354338 1.2469691
-19.803886 2.6800611 0.050888419
-19.805965 2.693367 0.1711812
-19.80938 2.7431347 0.27992535
-19.814131 2.8293414 0.37706912
-19.817545 2.8791013 0.48579609
-19.820961 2.9288614 0.59452307
-19.824373 2.978622 0.70325136
-19.827789 3.0283818 0.81197834
-19.832537 3.1145437 0.90902507
-19.834618 3.1279016 1.0294319
-19.839363 3.2140493 1.1264478
-19.841446 3.2274225 1.2468877
-19.843531 3.2408094 1.3673574
-19.923239 2.6720498 0.05080688
-19.926653 2.7218099 0.15953386
-19.930067 2.7715702 0.26826084
-19.933483 2.8213301 0.37698746
-19.936897 2.8710899 0.48571467
-19.941628 2.9572752 0.58280993
-19.945042 3.0070281 0.69152093
-19.948458 3.0567808 0.80023229
-19.951868 3.1065338 0.90894377
-19.955284 3.1562867 1.0176551
-19.958696 3.2060394 1.126366
-19.962112 3.2557921 1.2350774
-19.9629 3.2327967 1.3672752
-20.042593 2.6640387 0.050725102
-20.046009 2.7137985 0.15945184
-20.049421 2.7635584 0.26817882
-20.052837 2.8133185 0.3769058
-20.057549 2.8995125 0.47401679
-20.060963 2.949265 0.58272803
-20.064377 2.9990182 0.69143963
-20.067793 3.0487707 0.80015039
-20.071203 3.0985236 0.90886176
-20.074619 3.1482766 1.0175731
-20.079327 3.2343907 1.1145842
-20.081448 3.2477825 1.2349958
-20.083567 3.2611601 1.3554509
-20.161945 2.6560273 0.050643325
-20.165359 2.7057874 0.15937018
-20.168776 2.7555475 0.26809728
-20.172188 2.8053074 0.37682414
-20.176888 2.8915019 0.47393477
-20.180304 2.9412549 0.58264613
-20.183716 2.9910078 0.69135761
-20.18713 3.0407605 0.8000685
-20.191816 3.1268902 0.89711118
-20.193958 3.1402662 1.0174912
-20.198643 3.226382 1.1145027
-20.200787 3.2397718 1.2349137
-20.202919 3.2531486 1.3553692
-20.281298 2.6480162 0.050561666
-20.283449 2.6613169 0.17085433
-20.286865 2.7110848 0.27959847
-20.29154 2.797296 0.37674236
-20.294956 2.8470562 0.48546934
-20.299637 2.9332449 0.58256459
-20.303049 2.9829979 0.6912756
-20.306463 3.0327506 0.79998696
-20.309875 3.0825033 0.90869856
-20.312029 3.0958569 1.0291053
-20.316706 3.1820092 1.1261208
-20.320118 3.2317619 1.2348322
-20.322271 3.2451372 1.3552876
-20.400652 2.6400049 0.050479889
-20.402821 2.6533043 0.17077231
-20.406235 2.7030723 0.2795167
-20.410896 2.7892849 0.37666059
-20.41431 2.8390448 0.48538744
-20.41897 2.9252348 0.58248281
-20.422384 2.9749875 0.69119394
-20.425797 3.0247405 0.7999053
-20.429213 3.0744934 0.90861654
-20.431383 3.0878458 1.0290235
-20.436041 3.1739988 1.126039
-20.439453 3.2237515 1.2347503
-20.441626 3.2371264 1.355206
-20.518776 2.5955248 0.061947823
-20.522192 2.6452918 0.17069042
-20.525606 2.6950598 0.27943468
-20.530251 2.7812734 0.37657857
-20.533667 2.8310332 0.48530531
-20.538307 2.9172249 0.58240139
-20.541721 2.9669776 0.6911124
-20.545134 3.0167303 0.79982364
-20.54855 3.0664833 0.90853477
-20.550737 3.079834 1.0289416
-20.555378 3.1659889 1.1259575
-20.55879 3.2157416 1.2346685
-20.560978 3.2291148 1.3551241
-20.63936 2.623982 0.050316215
-20.641563 2.6372793 0.17060876
-20.644979 2.6870475 0.27935326
-20.649605 2.773262 0.37649703
-20.653019 2.8230219 0.48522365
-20.657642 2.9092145 0.58231926
-20.661058 2.9589674 0.6910305
-20.664469 3.0087199 0.79974163
-20.667885 3.0584731 0.90845323
-20.670094 3.0718226 1.02886
-20.674713 3.1579785 1.1258754
-20.678127 3.2077317 1.234587
-20.680336 3.2211034 1.3550422
-20.758713 2.6159706 0.050234318
-20.760935 2.629267 0.17052674
-20.764349 2.6790349 0.27927136
-20.768959 2.7652507 0.37641513
-20.772373 2.8150108 0.48514199
-20.776978 2.9012043 0.5822376
-20.780394 2.9509573 0.69094872
-20.783804 3.00071 0.79965997
-20.78722 3.0504627 0.90837109
-20.789446 3.0638113 1.0287781
-20.794048 3.1499684 1.1257939
-20.797464 3.1997213 1.2345053
-20.876888 2.5714874 0.06170249
-20.879128 2.5847895 0.18201053
-20.883718 2.6710227 0.27918947
-20.887133 2.7207897 0.38793182
-20.891726 2.8069994 0.48506045
-20.895142 2.8567595 0.59378731
-20.898556 2.9065204 0.7025156
-20.903141 2.9927001 0.79957843
-20.906555 3.0424528 0.90828967
-20.9088 3.0558 1.0286963
-20.913383 3.1419587 1.125712
-20.9168 3.1917114 1.2344232
-20.996262 2.5634747 0.061620951
-20.998516 2.576776 0.18192887
-21.00309 2.6630099 0.27910769
-21.006504 2.7127771 0.38785017
-21.011078 2.7989883 0.48497868
-21.014494 2.8487482 0.59370542
-21.017908 2.898509 0.70243406
-21.021322 2.9482689 0.81116116
-21.025892 3.0344427 0.90820789
-21.028151 3.0477891 1.0286148
-21.032721 3.1339483 1.1256304
-21.116774 2.5919366 0.049989223
-21.119045 2.6052294 0.17028153
-21.122459 2.6549976 0.27902579
-21.125874 2.7047644 0.38776851
-21.12929 2.7545323 0.49651253
-21.133844 2.8407366 0.59362352
-21.13726 2.8904974 0.70235217
-21.141813 2.9766798 0.79941475
-21.145226 3.0264325 0.90812612
-21.147503 3.0397778 1.0285329
-21.152054 3.1259384 1.1255486
-21.15547 3.1756911 1.2342601
-21.236126 2.5839255 0.049907446
-21.238415 2.5972171 0.17019987
-21.241829 2.6469851 0.27894437
-21.245243 2.6967521 0.38768673
-21.249783 2.7829654 0.48481512
-21.253197 2.8327255 0.59354198
-21.256613 2.8824863 0.70227051
-21.26115 2.9686694 0.79933298
-21.264563 3.0184226 0.90804446
-21.267979 3.0681753 1.0167558
-21.272505 3.1543019 1.1137674
-21.274805 3.1676807 1.2341781
-21.355478 2.5759144 0.049825668
-21.357788 2.5892048 0.17011809
-21.3612 2.6389725 0.27886248
-21.365721 2.7251945 0.37600648
-21.369135 2.7749543 0.48473358
-21.372549 2.8247144 0.59346032
-21.377068 2.9109068 0.69053996
-21.380482 2.9606595 0.79925132
-21.384996 3.0468011 0.896294
-21.38731 3.0601649 1.0166738
-21.391825 3.1462927 1.1136851
-21.395239 3.1960373 1.222379
-21.474833 2.567903 0.049744248
-21.47716 2.581192 0.17003632
-21.480572 2.63096 0.27878058
-21.485075 2.7171831 0.37592506
-21.488489 2.7669432 0.4846518
-21.491903 2.8167031 0.59337866
-21.496403 2.9028969 0.69045842
-21.499817 2.9526494 0.79916978
-21.504313 3.0387921 0.89621222
-21.506647 3.0521555 1.0165925
-21.511141 3.1382837 1.1136036
-21.514555 3.1880288 1.2222977
-21.594185 2.5598919 0.049662232
-21.596527 2.5731795 0.16995466
-21.599941 2.6229475 0.2786988
-21.603357 2.6727145 0.38744128
-21.60784 2.7589316 0.48456979
-21.611256 2.8086917 0.59329653
-21.61574 2.8948865 0.690377
-21.619154 2.9446397 0.79908824
-21.623632 3.0307832 0.89613068
-21.625982 3.0441451 1.0165107
-21.630461 3.130275 1.1135221
-21.633873 3.1800199 1.2222161
-21.712482 2.5153999 0.061130047
-21.714846 2.5286939 0.18143821
-21.719311 2.6149352 0.27861714
-21.722727 2.6647022 0.38735938
-21.727192 2.7509203 0.48448801
-21.730608 2.8006806 0.59321499
-21.735075 2.8868766 0.69029486
-21.738489 2.9366293 0.79900587
-21.74295 3.0227747 0.89604902
-21.745317 3.0361352 1.0164287
-21.749779 3.1222661 1.1134403
-21.753191 3.1720109 1.2221341
-21.831854 2.5073874 0.061048508
-21.834232 2.5206802 0.18135643
-21.838682 2.6069226 0.2785356
-21.842098 2.6566899 0.38727784
-21.846546 2.7429092 0.48440635
-21.849962 2.7926693 0.59313321
-21.854408 2.8788667 0.69021344
-21.857824 2.9286194 0.79892457
-21.862268 3.0147653 0.89596689
-21.864653 3.028125 1.0163469
-21.869097 3.1142569 1.1133584
-21.872509 3.1640017 1.2220521
-21.950209 2.4628913 0.072514534
-21.953625 2.5126665 0.18127429
-21.957039 2.5624413 0.29003441
-21.96147 2.6486771 0.38719606
-21.9659 2.7348979 0.48432457
-21.969315 2.7846577 0.59305143
-21.972729 2.8344183 0.70177984
-21.97716 2.920609 0.79884279
-21.981585 3.0067563 0.89588511
-21.983988 3.0201149 1.0162657
-21.9874 3.0698676 1.1249766
23.983561 -1.3208797 2.6792302
23.988825 -1.3451998 2.5636187
23.954441 -1.5366576 2.51757
23.967619 -1.5275943 2.3880599
23.964949 -1.5853527 2.2863731
23.938513 -1.743252 2.2265508
23.943766 -1.7676224 2.1109424
23.94902 -1.7919948 1.9952996
23.94635 -1.8497444 1.8936279
23.943682 -1.9074941 1.7919558
23.93309 -1.9985871 1.7043145
23.938343 -2.0229936 1.5886123
23.927752 -2.1140692 1.5010004
23.925083 -2.1718106 1.3993435
23.922415 -2.2295518 1.2976866
23.919746 -2.287293 1.1960295
23.924995 -2.3117406 1.0802546
23.938168 -2.3029056 0.9503122
23.919657 -2.4272399 0.87691069
23.932827 -2.4184377 0.74691045
23.930159 -2.4762044 0.64520872
23.91165 -2.6004879 0.57189673
23.924818 -2.5917368 0.44180691
23.930075 -2.6162405 0.32587236
23.919477 -2.707269 0.23840505
23.924734 -2.7317896 0.12244081
23.922062 -2.7895639 0.020725846
23.914379 -0.97341168 2.9143188
23.895861 -1.098222 2.840297
23.885269 -1.1894928 2.7524359
23.86676 -1.3141873 2.6784954
23.872007 -1.3385062 2.5628839
23.845602 -1.4965572 2.502923
23.850842 -1.5209031 2.3873253
23.848169 -1.5786612 2.2856383
23.821781 -1.7365634 2.2258165
23.827017 -1.7609327 2.1102078
23.832254 -1.7853047 1.994565
23.829584 -1.8430538 1.8928933
23.81901 -1.9341563 1.8052368
23.808439 -2.0252275 1.7176044
23.813673 -2.0496387 1.601923
23.803102 -2.1406932 1.5143205
23.800434 -2.198426 1.4126784
23.797764 -2.2561586 1.3110363
23.802998 -2.2806034 1.1952951
23.800327 -2.3383448 1.0936383
23.813465 -2.3295131 0.96371651
23.78709 -2.4870903 0.90446651
23.808126 -2.4450297 0.76034284
23.797554 -2.5360482 0.6728341
23.779085 -2.6602886 0.59954041
23.792215 -2.6515474 0.46949029
23.797447 -2.6760612 0.35359734
23.786877 -2.7670467 0.26614666
23.800009 -2.7583432 0.13596857
23.805246 -2.7828705 0.01999104
23.797497 -0.9667145 2.9135833
23.779007 -1.0915267 2.8395619
23.768436 -1.1827986 2.7517009
23.749968 -1.3074954 2.6777606
23.755194 -1.3318133 2.562149
23.728836 -1.4898667 2.5021882
23.734056 -1.5142117 2.3865905
23.731386 -1.5719697 2.2849035
23.705051 -1.7298751 2.2250819
23.71027 -1.7542435 2.1094735
23.707603 -1.8119848 2.0078163
23.704933 -1.8697259 1.9061595
23.702265 -1.9274671 1.8045025
23.691708 -2.0185394 1.7168701
23.689041 -2.076272 1.6152281
23.678495 -2.1673059 1.5276328
23.683702 -2.1917374 1.411944
23.681034 -2.24947 1.310302
23.678366 -2.3072038 1.2086582
23.683582 -2.3316555 1.0929039
23.69668 -2.3228216 0.96298182
23.670361 -2.4804018 0.90373218
23.683458 -2.4716086 0.77376974
23.672907 -2.5626202 0.68627584
23.65448 -2.6868269 0.61298388
23.667568 -2.6781025 0.48296201
23.672779 -2.7026067 0.36708385
23.66223 -2.7935848 0.27964801
23.675323 -2.7848849 0.14949083
23.680546 -2.8094168 0.033533931
23.680614 -0.96001732 2.9128485
23.662157 -1.0848316 2.8388267
23.6516 -1.1761042 2.7509658
23.641047 -1.2673451 2.6631308
23.638376 -1.32512 2.5614142
23.612074 -1.4831762 2.5014539
23.617275 -1.5075204 2.3858557
23.614605 -1.5652788 2.2841692
23.588322 -1.7231865 2.2243476
23.593523 -1.7475543 2.1087387
23.590855 -1.8052955 2.0070817
23.588184 -1.8630363 1.9054248
23.577646 -1.9541183 1.8177779
23.567112 -2.0451691 1.7301548
23.572311 -2.0695837 1.6144938
23.561777 -2.1606185 1.5268987
23.566975 -2.1850493 1.4112097
23.564304 -2.2427821 1.3095677
23.561636 -2.3005157 1.207924
23.558969 -2.3582482 1.1062819
23.572033 -2.3494191 0.97637892
23.553631 -2.4737136 0.90299779
23.558825 -2.4981894 0.78719842
23.548294 -2.589179 0.69971371
23.537764 -2.6801393 0.61224979
23.542955 -2.7046454 0.49642801
23.548151 -2.7291539 0.38057053
23.545481 -2.7868953 0.27891368
23.558542 -2.7781935 0.14875603
23.563744 -2.8027244 0.032799244
23.545309 -1.0781364 2.8380914
23.534771 -1.1694099 2.7502313
23.524233 -1.2606519 2.662396
23.521563 -1.3184267 2.5606794
23.503166 -1.4430711 2.4868078
23.500498 -1.5008295 2.3851213
23.505686 -1.5251753 2.2694874
23.47159 -1.7164979 2.2236133
23.468924 -1.7742308 2.1219714
23.474108 -1.7986059 2.0063474
23.471437 -1.8563473 1.9046906
23.460917 -1.9474298 1.8170435
23.450399 -2.0384815 1.7294204
23.447731 -2.0962069 1.6277918
23.445065 -2.1539309 1.5261645
23.442394 -2.2116551 1.4245374
23.439728 -2.2693806 1.3229086
23.444906 -2.2938271 1.2071897
23.434391 -2.384829 1.1196545
23.447418 -2.376018 0.98977792
23.429054 -2.5002782 0.91639853
23.434231 -2.5247579 0.80062151
23.423717 -2.6157269 0.71314442
23.413204 -2.7066653 0.62568945
23.426226 -2.697957 0.49569368
23.431406 -2.7224648 0.37983608
23.420887 -2.8134222 0.29240966
23.433916 -2.8047252 0.16227102
23.446945 -2.7960324 0.032064319
23.436317 -1.0379372 2.8234782
23.417938 -1.1627159 2.749496
23.407415 -1.2539585 2.6616611
23.412596 -1.278281 2.5460362
23.394232 -1.4029508 2.4721541
23.391562 -1.4607172 2.3704524
23.388891 -1.5184829 2.2687526
23.35486 -1.7098099 2.2228792
23.352192 -1.7675426 2.121237
23.349522 -1.8252761 2.0195932
23.346855 -1.883009 1.9179513
23.336355 -1.9740702 1.8303133
23.325853 -2.0651011 1.7426977
23.331018 -2.0895195 1.6270576
23.320518 -2.1805334 1.5394716
23.325682 -2.204968 1.4238032
23.315182 -2.2959659 1.3362458
23.320345 -2.3204174 1.2205474
23.309847 -2.4113982 1.1330196
23.322838 -2.4026041 1.0031712
23.30451 -2.5268307 0.9297936
23.301844 -2.5845466 0.82818151
23.291353 -2.6754854 0.74072832
23.280863 -2.7663941 0.65329766
23.29384 -2.7576945 0.52334321
23.299002 -2.7822132 0.40752709
23.304157 -2.8067338 0.29167527
23.309317 -2.8312578 0.17578781
23.314478 -2.8557844 0.059864521
23.311611 -1.0647459 2.8366215
23.293272 -1.1894908 2.762641
23.290602 -1.2472651 2.6609263
23.287931 -1.3050402 2.5592098
23.26178 -1.4631053 2.4992502
23.266935 -1.4874465 2.3836517
23.264263 -1.5452049 2.281965
23.230312 -1.7364845 2.2360892
23.227644 -1.7942088 2.1344621
23.224976 -1.851934 2.0328333
23.214493 -1.942983 1.945188
23.211826 -2.0006988 1.843576
23.20916 -2.0584147 1.7419636
23.20649 -2.1161313 1.6403499
23.196009 -2.2071381 1.5527792
23.193342 -2.2648451 1.4511819
23.190674 -2.3225534 1.349583
23.188007 -2.3802607 1.2479856
23.185339 -2.437969 1.1463869
23.190485 -2.4624276 1.0306733
23.172205 -2.5866115 0.95731401
23.177336 -2.6110926 0.8415916
23.16687 -2.7020102 0.75414771
23.156401 -2.7929113 0.66673189
23.169334 -2.7842155 0.53679812
23.174477 -2.8087251 0.42099518
23.179617 -2.8332498 0.30516571
23.200384 -2.7913446 0.16080189
23.197714 -2.8490944 0.059130073
23.194767 -1.0580511 2.8358865
23.17646 -1.1827979 2.7619066
23.173788 -1.240572 2.6601915
23.171118 -1.298347 2.5584745
23.145014 -1.4564147 2.4985156
23.142344 -1.5141644 2.3968439
23.147484 -1.5385137 2.2812304
23.113596 -1.7297971 2.2353549
23.110929 -1.7875215 2.133728
23.108259 -1.8452464 2.032099
23.097797 -1.9362966 1.944454
23.095129 -1.9940125 1.8428417
23.084663 -2.0850368 1.7552413
23.089794 -2.1094449 1.6396158
23.079327 -2.2004523 1.5520451
23.07666 -2.2581599 1.4504479
23.073992 -2.3158679 1.3488489
23.071325 -2.373575 1.2472516
23.060873 -2.4645271 1.1597481
23.06599 -2.4889915 1.0440538
23.055538 -2.5799267 0.95658004
23.060656 -2.6044068 0.84085763
23.042418 -2.7285364 0.76756728
23.031967 -2.819402 0.6801548
23.052654 -2.7775295 0.53606409
23.065569 -2.7688382 0.40605873
23.070694 -2.7933571 0.29020667
23.107027 -2.684937 0.11729681
23.088751 -2.8091867 0.044130683
23.08572 -1.0178485 2.8212726
23.067444 -1.1426332 2.7472911
23.064772 -1.2004158 2.6455615
23.062101 -1.2581985 2.5438313
23.036039 -1.4163058 2.4838696
23.033369 -1.4740639 2.3821826
23.030699 -1.5318218 2.2804956
22.996883 -1.72311 2.2346208
22.994217 -1.7808342 2.1329937
22.991547 -1.8385594 2.0313649
22.981094 -1.9296101 1.9437199
22.978428 -1.9873258 1.8421077
22.97576 -2.0450413 1.7404954
22.973091 -2.1027582 1.6388817
22.970425 -2.1604738 1.5372692
22.967756 -2.2181907 1.4356555
22.957319 -2.3091826 1.3481148
22.954651 -2.36689 1.2465177
22.951982 -2.424598 1.1449187
22.957085 -2.4490545 1.0292051
22.94665 -2.5400136 0.94172251
22.95175 -2.564487 0.82597911
22.93354 -2.6886408 0.75267994
22.915339 -2.8127193 0.67942113
22.943747 -2.7376351 0.52114087
22.964413 -2.6957073 0.37689835
22.977306 -2.6869791 0.24676967
23.005791 -2.6117208 0.088030934
22.979755 -2.769263 0.029125214
22.958395 -1.1024516 2.7326715
22.947937 -1.1937215 2.6448264
22.953053 -1.2180347 2.52918
22.911484 -1.4430342 2.4970465
22.901041 -1.5341944 2.4093032
22.906143 -1.5585337 2.2937028
22.872406 -1.7497745 2.2478256
22.869738 -1.8074911 2.1462119
22.867071 -1.865207 2.0445995
22.864401 -1.9229237 1.9429858
22.861734 -1.9806391 1.8413734
22.859068 -2.0383554 1.7397612
22.856398 -2.0960717 1.6381474
22.853731 -2.1537874 1.5365351
22.851063 -2.2115042 1.4349213
22.840635 -2.3024967 1.3473809
22.837969 -2.3602045 1.2457837
22.8353 -2.4179125 1.1441847
22.840393 -2.442368 1.0284709
22.829967 -2.5333278 0.94098848
22.842815 -2.5245655 0.81110036
22.83239 -2.6155171 0.72363102
22.806461 -2.7728605 0.66453052
22.842567 -2.6645148 0.4920221
22.870964 -2.5892727 0.33349234
22.883839 -2.580512 0.20329523
22.896723 -2.571744 0.073018909
22.841547 -1.0957565 2.7319365
22.838875 -1.1535487 2.6301899
22.836203 -1.2113397 2.5284452
22.786966 -1.4697638 2.5102255
22.784296 -1.5275049 2.4085686
22.781628 -1.5852464 2.3069117
22.755713 -1.7430882 2.2470913
22.753042 -1.8008046 2.1454775
22.742628 -1.8918567 2.0578344
22.739962 -1.9495637 1.9562368
22.745037 -1.9739529 1.8406394
22.742371 -2.0316687 1.739027
22.739702 -2.0893855 1.6374134
22.72929 -2.1803958 1.5498431
22.734365 -2.2048178 1.4341872
22.723955 -2.2958112 1.3466468
22.721289 -2.3535185 1.2450496
22.71862 -2.4112267 1.1434507
22.723696 -2.4356816 1.0277368
22.721027 -2.4933984 0.92612302
22.749338 -2.4180861 0.76789337
22.738926 -2.5091052 0.68040037
22.705286 -2.6997659 0.63545924
22.756832 -2.5248139 0.43445927
22.777437 -2.4827483 0.29005045
22.732449 -1.0555608 2.7173054
22.722023 -1.1468532 2.6294546
22.719351 -1.2046442 2.52771
22.670214 -1.4630741 2.5094912
22.659811 -1.5542138 2.4217572
22.664875 -1.5785568 2.3061771
22.631283 -1.7697558 2.2602963
22.628614 -1.8274628 2.1586993
22.625948 -1.8851711 2.0571003
22.623281 -1.9428785 1.955503
22.628342 -1.9672664 1.8399053
22.625673 -2.0249822 1.7382931
22.623005 -2.0826988 1.6366793
22.612612 -2.1737103 1.5491091
22.61767 -2.1981313 1.4334532
22.607277 -2.2891257 1.3459128
22.60461 -2.346833 1.2443155
22.60194 -2.404541 1.1427165
22.606998 -2.4289951 1.0270028
22.612059 -2.4534662 0.91125894
22.655787 -2.3115158 0.72465217
22.653116 -2.3692913 0.62293559
22.611776 -2.5934043 0.59219706
22.663254 -2.418262 0.39106017
22.605173 -1.1401579 2.6287198
22.59477 -1.2314215 2.5408914
22.54575 -1.4897926 2.5226645
22.535366 -1.5809114 2.434938
22.540413 -1.6052582 2.3193803
22.514601 -1.7630701 2.2595625
22.511932 -1.8207772 2.1579652
22.509266 -1.8784856 2.0563662
22.498896 -1.9695095 1.9687456
22.503929 -1.9939011 1.8531702
22.501263 -2.0516093 1.7515712
22.50631 -2.0760126 1.6359451
22.495928 -2.1670249 1.548375
22.493261 -2.2247319 1.4467777
22.490593 -2.2824402 1.3451787
22.487926 -2.3401475 1.2435815
22.485258 -2.3978558 1.1419827
22.490305 -2.4223087 1.0262685
22.495342 -2.4467788 0.91052473
22.53125 -2.3381305 0.73809326
22.536303 -2.3625979 0.62220067
22.502762 -2.5534675 0.57727456
22.546406 -2.411567 0.39032513
22.551466 -2.4360554 0.27433461
22.47794 -1.2247274 2.5401564
22.41362 -1.5498803 2.549727
22.410952 -1.6075959 2.4481149
22.408285 -1.6653126 2.3465011
22.39023 -1.7897267 2.2727618
22.387564 -1.8474255 2.1711798
22.377205 -1.9384493 2.0835607
22.374537 -1.9961407 1.9819918
22.379562 -2.0205238 1.8664294
22.384586 -2.044924 1.7508372
22.381918 -2.1026311 1.6492399
22.371559 -2.1936228 1.5616775
22.368895 -2.2513216 1.460095
22.366228 -2.3090215 1.358511
22.36356 -2.3667212 1.256927
22.36858 -2.3911703 1.1412486
22.373604 -2.4156222 1.0255345
22.386322 -2.4068296 0.89565456
22.422155 -2.2981296 0.7231825
22.434898 -2.2892885 0.59308147
22.401411 -2.4802489 0.54815507
22.437267 -2.3715596 0.37535918
22.353409 -1.2514944 2.5533309
22.296923 -1.5431938 2.5489931
22.294252 -1.6009095 2.447381
22.291586 -1.6586263 2.345767
22.273565 -1.7830422 2.272028
22.263229 -1.8740758 2.1843944
22.260563 -1.9317662 2.0828271
22.257895 -1.9894572 1.9812579
22.262897 -2.0138392 1.8656955
22.260229 -2.0715389 1.7641115
22.257565 -2.1292386 1.6625274
22.247231 -2.2202225 1.5749817
22.25223 -2.2446373 1.4593612
22.241896 -2.3356047 1.3718435
22.239229 -2.393295 1.2702761
22.244228 -2.4177353 1.1546108
22.249233 -2.442193 1.0389156
22.254236 -2.4666524 0.92318654
22.289967 -2.3580422 0.75079238
22.30267 -2.3492112 0.62073088
22.276949 -2.5068235 0.56161314
22.312708 -2.3981767 0.38885498
22.172562 -1.5698897 2.5621555
22.177559 -1.594223 2.4466467
22.167227 -1.6853055 2.3589594
22.149248 -1.809701 2.2852297
22.138924 -1.900699 2.1975975
22.136257 -1.9583818 2.0960436
22.133593 -2.0160646 1.9944892
22.138582 -2.0404649 1.878955
22.135914 -2.0981562 1.777386
22.133249 -2.1558473 1.6758168
22.122927 -2.2467959 1.5882727
22.127914 -2.27123 1.4726788
22.117594 -2.3621616 1.3851644
22.114929 -2.4198444 1.2836102
22.127569 -2.411051 1.1538768
22.124901 -2.4687507 1.0522928
22.129885 -2.4932148 0.93658441
22.157852 -2.417917 0.77838516
22.162853 -2.4423833 0.66255039
22.152515 -2.5333991 0.5750711
22.180517 -2.4580677 0.4165644
22.185516 -2.482564 0.30061513
22.190519 -2.5070636 0.18463027
22.195522 -2.5315666 0.068607926
22.05588 -1.5632043 2.5614214
22.053213 -1.6209123 2.4598227
22.042906 -1.7119732 2.3721442
22.024963 -1.836334 2.298418
22.022295 -1.8940165 2.1968639
22.01963 -1.9516995 2.0953097
22.016964 -2.0093822 1.9937556
22.021933 -2.0337815 1.8782213
22.011631 -2.1247478 1.7906473
22.008965 -2.1824307 1.6890931
22.006298 -2.2401135 1.587539
22.003633 -2.2977962 1.4859848
22.000965 -2.355479 1.3844306
21.998301 -2.4131618 1.2828765
22.003267 -2.4376192 1.1672394
22.000601 -2.4953103 1.0656703
22.005568 -2.5197659 0.94997501
22.025822 -2.4777532 0.80596066
22.023153 -2.5354776 0.7043336
22.020485 -2.5932028 0.6027047
22.056044 -2.4846601 0.43005073
22.068686 -2.4758699 0.29988033
22.073671 -2.5003681 0.18389511
22.078661 -2.5248709 0.067872643
21.923954 -1.6232598 2.5884693
21.928909 -1.647589 2.4729946
21.918621 -1.7386426 2.3853312
21.908331 -1.8296511 2.2976842
21.898048 -1.9206434 2.2100673
21.895382 -1.9783177 2.1085281
21.900333 -2.0026996 1.9930217
21.905289 -2.0270979 1.8774874
21.895 -2.1180651 1.7899135
21.892332 -2.1757479 1.6883594
21.882053 -2.2666903 1.6008304
21.879387 -2.3243644 1.4992911
21.87672 -2.3820388 1.3977519
21.874056 -2.439714 1.296211
21.879002 -2.4641619 1.1805887
21.876335 -2.5218449 1.0790346
21.881289 -2.5463183 0.96336746
21.886238 -2.5707812 0.84765708
21.875954 -2.6617005 0.76022923
21.880903 -2.6861796 0.64449072
21.9011 -2.6442394 0.50034344
21.913681 -2.6355026 0.37028825
21.926275 -2.6267571 0.24015784
21.94651 -2.5847409 0.095685363
21.920935 -2.7422733 0.036784053
21.802368 -1.5922375 2.7031674
21.799704 -1.6499202 2.601613
21.797037 -1.7076032 2.5000591
21.794371 -1.765286 2.398505
21.784103 -1.8562875 2.310873
21.781439 -1.9139619 2.2093339
21.77117 -2.0049379 2.1217468
21.776106 -2.0293102 2.0062554
21.781038 -2.0536997 1.890734
21.770775 -2.1446602 1.8031753
21.768108 -2.2023344 1.7016361
21.765442 -2.2600086 1.6000967
21.755177 -2.3509347 1.5125976
21.752512 -2.4086006 1.4110733
21.749846 -2.4662664 1.309549
21.75478 -2.4907069 1.1939381
21.752113 -2.5483813 1.092399
21.757044 -2.572845 0.97674668
21.761974 -2.597326 0.86106449
21.751711 -2.6882105 0.77363831
21.756641 -2.7127082 0.65792626
21.776777 -2.6707706 0.51379967
21.781715 -2.695276 0.39798206
21.80188 -2.6533105 0.25365925
21.822058 -2.611311 0.10921311
21.788927 -2.8020372 0.064583182
21.678154 -1.6189077 2.7162981
21.675488 -1.6765819 2.6147587
21.672823 -1.734257 2.5132179
21.670155 -1.7919314 2.4116788
21.659904 -1.8829244 2.3240635
21.65724 -1.9405904 2.2225392
21.654575 -1.9982572 2.1210132
21.659492 -2.0226288 2.0055218
21.656826 -2.0803039 1.9039807
21.654161 -2.1379783 1.8024417
21.651497 -2.1956525 1.7009025
21.641247 -2.2865872 1.6133901
21.63858 -2.344254 1.5118641
21.635916 -2.4019198 1.4103398
21.633249 -2.4595857 1.3088155
21.638166 -2.4840252 1.1932046
21.6355 -2.5416996 1.0916654
21.632835 -2.5993738 0.99012607
21.637745 -2.6238449 0.87445879
21.63508 -2.6815279 0.77290457
21.639994 -2.7060246 0.65719253
21.652494 -2.6973038 0.52725589
21.657412 -2.7218006 0.41145158
21.677517 -2.6798651 0.26716256
21.690039 -2.6711328 0.13700163
21.657001 -2.8617625 0.092364788
21.646742 -2.9526658 0.0049993992
21.571772 -1.5211895 2.8032539
21.55397 -1.6455796 2.7294288
21.551306 -1.7032455 2.6279044
21.556206 -1.7275752 2.5124846
21.553539 -1.7852497 2.4109454
21.543308 -1.8762441 2.3233302
21.540644 -1.9339099 2.2218056
21.537979 -1.9915767 2.1202798
21.542877 -2.0159469 2.0047882
21.540209 -2.0736222 1.9032472
21.537544 -2.1312966 1.8017081
21.53488 -2.1889708 1.7001688
21.524652 -2.2799067 1.6126566
21.521986 -2.3375735 1.5111308
21.519321 -2.3952391 1.4096063
21.516653 -2.4529049 1.308082
21.521551 -2.4773433 1.1924709
21.518883 -2.5350177 1.0909318
21.516218 -2.5926919 0.98939252
21.521112 -2.6171625 0.87372506
21.518448 -2.6748452 0.7721709
21.515779 -2.732528 0.67061675
21.528246 -2.7238257 0.54070497
21.533148 -2.7483265 0.42492294
21.538052 -2.77283 0.30910522
21.542953 -2.7973504 0.19325793
21.525146 -2.9214504 0.12012792
21.514912 -3.0123224 0.032788396
21.44759 -1.5478698 2.81637
21.437374 -1.6388988 2.7286956
21.43471 -1.6965647 2.6271713
21.432043 -1.7542305 2.5256472
21.429379 -1.8118973 2.4241209
21.419167 -1.9028567 2.3365076
21.424046 -1.927229 2.2210724
21.421381 -1.9848956 2.1195464
21.426264 -2.0092654 2.0040545
21.423597 -2.0669405 1.9025136
21.420933 -2.124615 1.8009745
21.418266 -2.1822891 1.6994352
21.408054 -2.273226 1.611923
21.405388 -2.3308928 1.5103972
21.402723 -2.3885586 1.4088728
21.392515 -2.4794347 1.3214053
21.404938 -2.4706619 1.1917374
21.394726 -2.5615571 1.1042982
21.399605 -2.5860102 0.98865891
21.404486 -2.6104798 0.87299132
21.401819 -2.6681626 0.77143723
21.399153 -2.7258453 0.66988307
21.404036 -2.7503479 0.5541575
21.408915 -2.7748401 0.43838865
21.413797 -2.7993493 0.32259005
21.411131 -2.8570564 0.22099268
21.39337 -2.981113 0.14788103
21.390703 -3.0388043 0.046312094
21.323442 -1.5745513 2.8294883
21.313246 -1.6655455 2.7418151
21.303053 -1.756523 2.6541719
21.307915 -1.780861 2.5387948
21.30525 -1.8385195 2.437284
21.295059 -1.9294715 2.3496852
21.299921 -1.9538354 2.2342632
21.297256 -2.0114925 2.1327538
21.30212 -2.0358808 2.0172884
21.299456 -2.0935466 1.9157642
21.296787 -2.1512134 1.8142382
21.294123 -2.2088792 1.712714
21.291458 -2.2665453 1.6111896
21.281265 -2.3574395 1.5236925
21.278601 -2.4150977 1.4221815
21.275936 -2.4727554 1.3206722
21.280796 -2.4972105 1.2050891
21.27813 -2.5548763 1.1035647
21.282993 -2.5793288 0.98792535
21.287853 -2.6037972 0.87225771
21.285189 -2.6614797 0.77070343
21.28252 -2.7191625 0.66914934
21.287388 -2.7436643 0.5534237
21.292253 -2.7681556 0.43765467
21.289587 -2.8258553 0.33607072
21.286919 -2.8835549 0.23448682
21.27672 -2.9744294 0.14714742
21.274054 -3.0321205 0.045578241
21.206848 -1.5678706 2.8287547
21.189156 -1.6921943 2.754935
21.186489 -1.7498441 2.6534386
21.183826 -1.8074942 2.5519428
21.18116 -1.8651426 2.450448
21.170984 -1.9560874 2.362865
21.175833 -1.9804424 2.2474558
21.173166 -2.0380912 2.1459615
21.178011 -2.0624714 2.0305092
21.182859 -2.0868661 1.9150307
21.172682 -2.1777868 1.8274889
21.177528 -2.2021985 1.7119805
21.167353 -2.2931025 1.6244684
21.157179 -2.3839884 1.5369879
21.162022 -2.4084182 1.421448
21.159357 -2.4660754 1.3199385
21.1642 -2.4905298 1.2043556
21.161533 -2.5481956 1.1028314
21.16638 -2.5726469 0.9871918
21.171225 -2.5971146 0.87152398
21.161049 -2.6879966 0.78411162
21.165892 -2.7124801 0.66841561
21.170742 -2.7369807 0.55268991
21.168074 -2.794672 0.45112067
21.165409 -2.8523631 0.34955174
21.162741 -2.9100547 0.24798274
21.152561 -3.000895 0.16064334
21.149897 -3.058578 0.059089065
21.082758 -1.5945289 2.8418577
21.065102 -1.7188451 2.7680547
21.054947 -1.8097794 2.6804299
21.059772 -1.8341271 2.565094
21.049618 -1.9250449 2.4774976
21.046955 -1.9826779 2.3760312
21.051781 -2.0070512 2.2606504
21.049114 -2.0646925 2.1591692
21.05394 -2.0890625 2.0437317
21.051273 -2.1467123 1.9422358
21.048609 -2.2043612 1.8407414
21.045944 -2.2620108 1.7392453
21.035793 -2.3528981 1.6517649
21.033131 -2.4105396 1.5502837
21.030466 -2.4681809 1.4488025
21.027802 -2.5258212 1.3473229
21.040117 -2.5170541 1.2176942
21.037453 -2.5747116 1.1161847
21.042274 -2.5991807 1.0005735
21.047102 -2.6236398 0.88491893
21.036943 -2.7145135 0.79752314
21.041773 -2.7389891 0.68183869
21.039104 -2.7966635 0.58029944
21.043932 -2.8211641 0.46457177
21.041264 -2.8788469 0.36301768
21.038599 -2.9365296 0.26146352
21.035931 -2.9942124 0.15990937
21.033266 -3.0518951 0.058355331
20.958698 -1.6211882 2.8549626
20.941082 -1.7454696 2.7811632
20.938419 -1.8031024 2.679697
20.935755 -1.8607354 2.5782306
20.925615 -1.9516461 2.4906492
20.922953 -2.0092704 2.3891976
20.927763 -2.0336339 2.2738318
20.9251 -2.0912671 2.1723654
20.929903 -2.1156557 2.0569549
20.92724 -2.1732962 1.9554752
20.924574 -2.2309375 1.853994
20.921911 -2.288579 1.7525129
20.911781 -2.3794312 1.6650342
20.909115 -2.4370644 1.5635679
20.913919 -2.461503 1.4480692
20.911253 -2.5191433 1.3465897
20.923532 -2.5103743 1.2169608
20.920868 -2.5680315 1.1154513
20.918201 -2.62569 1.0139403
20.923014 -2.6501667 0.898314
20.920347 -2.7078326 0.79678977
20.925159 -2.7323077 0.68110514
20.922493 -2.7899818 0.57956588
20.919827 -2.8476562 0.47802663
20.924637 -2.8721642 0.36228406
20.92197 -2.929847 0.26072991
20.919304 -2.9875298 0.15917575
20.916637 -3.0452125 0.057621598
20.829882 -1.6235271 2.9833627
20.842136 -1.6145093 2.8542295
20.832008 -1.7054895 2.7665884
20.82189 -1.7964258 2.6789641
20.826679 -1.8207712 2.5636277
20.816563 -1.9116914 2.4760313
20.8139 -1.9693242 2.3745649
20.818687 -1.9936954 2.2591841
20.816021 -2.0513365 2.1577029
20.813358 -2.108978 2.0562217
20.818153 -2.1333549 1.9407692
20.808029 -2.2242596 1.853261
20.812822 -2.2486537 1.7377788
20.8027 -2.3395426 1.6502986
20.800035 -2.3971839 1.5488173
20.804829 -2.4216022 1.433292
20.794706 -2.5124655 1.3458565
20.806953 -2.5036945 1.2162273
20.804289 -2.561352 1.114718
20.801624 -2.6190102 1.013207
20.806417 -2.6434863 0.8975805
20.803751 -2.7011518 0.79605615
20.808546 -2.7256262 0.68037164
20.80588 -2.7833004 0.57883233
20.803215 -2.8409748 0.47729301
20.808004 -2.8654814 0.36155033
20.80534 -2.9231644 0.25999606
20.802671 -2.9808469 0.15844202
20.800007 -3.0385299 0.056887865
20.713356 -1.6168504 2.9826293
20.725573 -1.6078303 2.8534961
20.715467 -1.6988118 2.7658553
20.712803 -1.7564532 2.6643739
20.717579 -1.780779 2.5490093
20.707476 -1.8717351 2.4614131
20.704809 -1.9293764 2.3599322
20.702147 -1.9870176 2.258451
20.706919 -2.0113764 2.1430283
20.696817 -2.1023002 2.0554883
20.70159 -2.1266761 1.9400359
20.698925 -2.1843247 1.8385416
20.69626 -2.2419748 1.7370455
20.693596 -2.2996247 1.6355493
20.683496 -2.390506 1.5480841
20.688267 -2.4149232 1.4325588
20.685602 -2.472573 1.3310624
20.690378 -2.497015 1.215494
20.687714 -2.5546722 1.1139846
20.685047 -2.6123307 1.0124736
20.689821 -2.6368055 0.89684701
20.687155 -2.6944714 0.79532272
20.691935 -2.7189441 0.67963785
20.689266 -2.7766185 0.57809871
20.686602 -2.8342931 0.47655946
20.683935 -2.8919673 0.37502027
20.688711 -2.9164817 0.25926244
20.686043 -2.9741647 0.15770841
20.683378 -3.0318475 0.056154251
20.596827 -1.6101735 2.9818964
20.609009 -1.6011516 2.8527629
20.606346 -1.6588006 2.7512684
20.596254 -1.7497753 2.663641
20.601015 -1.7741003 2.5482762
20.590927 -1.865057 2.46068
20.588263 -1.9226983 2.359199
20.585598 -1.9803399 2.2577178
20.590357 -2.0046978 2.1422949
20.580269 -2.0956221 2.0547552
20.585026 -2.1199973 1.9393027
20.582363 -2.1776459 1.8378083
20.579697 -2.2352958 1.7363122
20.577032 -2.2929459 1.6348159
20.566948 -2.3838284 1.5473509
20.57913 -2.3750196 1.4177811
20.569038 -2.4658945 1.3303293
20.573799 -2.4903352 1.2147608
20.571135 -2.5479927 1.1132512
20.568468 -2.6056511 1.0117403
20.573227 -2.6301248 0.89611351
20.57056 -2.6877906 0.79458922
20.575323 -2.7122626 0.67890435
20.565229 -2.8031232 0.59153885
20.56999 -2.8276114 0.47582591
20.574749 -2.8521166 0.36008304
20.572083 -2.9097991 0.25852871
20.569416 -2.9674821 0.15697467
20.56675 -3.0251646 0.055420399
20.487703 -1.5701733 2.9673514
20.492449 -1.5944731 2.8520293
20.489784 -1.6521215 2.750535
20.479708 -1.7430975 2.6629076
20.484455 -1.7674214 2.547543
20.474382 -1.8583792 2.4599469
20.471716 -1.9160208 2.3584659
20.469053 -1.9736621 2.2569845
20.473795 -1.9980187 2.1415617
20.463724 -2.0889447 2.0540223
20.468466 -2.1133187 1.9385694
20.458395 -2.2042265 1.8510615
20.463135 -2.2286172 1.7355789
20.460472 -2.286267 1.6340828
20.450401 -2.3771505 1.5466177
20.455141 -2.4015656 1.4310921
20.445072 -2.4924321 1.3436571
20.449812 -2.5168645 1.2281015
20.447147 -2.5745142 1.1266054
20.444485 -2.632164 1.0251093
20.449223 -2.6566286 0.90949738
20.446558 -2.7142868 0.80798626
20.4513 -2.7387757 0.69233137
20.448633 -2.7964427 0.59080541
20.453379 -2.8209298 0.47509223
20.450712 -2.8786042 0.37355298
20.455454 -2.9031167 0.25779498
20.452785 -2.9607992 0.15624094
20.450121 -3.0184822 0.054686666
20.383282 -1.5544504 2.8374574
20.373222 -1.645443 2.7498019
20.370558 -1.7030928 2.6483057
20.367893 -1.7607428 2.5468097
20.357836 -1.8517015 2.4592137
20.355169 -1.9093428 2.3577328
20.352507 -1.966984 2.2562513
20.34984 -2.0246255 2.1547704
20.347178 -2.0822668 2.0532889
20.351904 -2.1066399 1.9378362
20.341848 -2.1975486 1.8503283
20.346575 -2.2219388 1.7348456
20.336519 -2.3128312 1.6473658
20.333857 -2.3704727 1.5458846
20.338581 -2.3948872 1.430359
20.321144 -2.5189457 1.35697
20.325863 -2.5433958 1.2414427
20.323198 -2.6010373 1.1399615
20.320534 -2.6586783 1.0384803
20.325258 -2.6831343 0.92288154
20.322594 -2.7407842 0.82138544
20.327314 -2.7652645 0.70574361
20.32465 -2.8229227 0.60423243
20.32937 -2.8474278 0.48854762
20.326706 -2.9050934 0.38702315
20.331434 -2.9295969 0.27128017
20.328768 -2.9872723 0.16973937
20.326101 -3.0449462 0.068200111
20.266703 -1.5477707 2.8367243
20.25666 -1.6387645 2.7490687
20.246618 -1.7297421 2.6614413
20.251329 -1.7540641 2.5460763
20.233921 -1.8783073 2.4723661
20.231256 -1.9359404 2.3708997
20.235962 -1.9603063 2.2555182
20.233297 -2.0179479 2.154037
20.223265 -2.1088388 2.0665009
20.22797 -2.1332295 1.9510763
20.225304 -2.1908708 1.8495951
20.230011 -2.2152598 1.7341123
20.219976 -2.3061538 1.6466327
20.217312 -2.3637948 1.5451514
20.222017 -2.3882084 1.4296256
20.204617 -2.5122688 1.3562369
20.20932 -2.5367179 1.2407095
20.199289 -2.6275349 1.1533043
20.196625 -2.6851676 1.051838
20.208694 -2.6764555 0.92214823
20.198662 -2.7672825 0.83478624
20.203365 -2.7917552 0.71915597
20.208071 -2.8162434 0.60349917
20.205404 -2.8739007 0.50198984
20.210112 -2.8984129 0.38628983
20.214817 -2.922915 0.27054656
20.212152 -2.9805899 0.16900563
20.202112 -3.0714114 0.081715226
20.157486 -1.5077448 2.8221526
20.140099 -1.6320857 2.7483351
20.130068 -1.7230639 2.6607084
20.134769 -1.7473855 2.5453429
20.124743 -1.8383455 2.4577475
20.114729 -1.9292636 2.3701668
20.119413 -1.9536285 2.2547851
20.116747 -2.0112698 2.1533039
20.106735 -2.1021621 2.065768
20.11878 -2.0932822 1.9363697
20.116116 -2.1509311 1.8348751
20.113451 -2.2085812 1.7333791
20.110786 -2.2662308 1.6318829
20.108122 -2.3238797 1.5303884
20.105457 -2.3815296 1.4288923
20.095434 -2.4723988 1.3414576
20.09277 -2.5300398 1.2399763
20.090105 -2.5876815 1.1384952
20.08744 -2.6453228 1.0370139
20.092133 -2.6697769 0.92141497
20.08947 -2.7274265 0.81991887
20.094156 -2.751905 0.70427686
20.091492 -2.8095634 0.60276574
20.09618 -2.8340666 0.48708057
20.093515 -2.8917325 0.38555634
20.098202 -2.9162331 0.26981294
20.095537 -2.9739084 0.16827214
20.085518 -3.0647306 0.080981851
20.040888 -1.5010643 2.8214192
20.023533 -1.6254066 2.747602
20.013527 -1.7163863 2.6599751
20.018204 -1.7407064 2.5446098
20.0082 -1.8316681 2.4570143
19.998199 -1.9225867 2.3694336
20.002871 -1.9469508 2.2540517
20.000206 -2.0045922 2.1525707
19.990206 -2.0954852 2.0650346
20.002214 -2.0866036 1.9356364
19.999552 -2.1442523 1.8341419
19.996885 -2.2019022 1.7326459
19.994221 -2.2595518 1.6311496
19.991558 -2.3172011 1.5296552
19.988892 -2.3748507 1.428159
19.978891 -2.4657211 1.3407245
19.983562 -2.4901493 1.2251685
19.973562 -2.5810037 1.137762
19.978233 -2.605449 1.0221761
19.982906 -2.6299098 0.906564
19.972904 -2.7207479 0.81918555
19.977575 -2.7452252 0.70354342
19.974913 -2.8028836 0.60203242
19.979582 -2.8273859 0.4863472
19.976917 -2.8850517 0.38482285
19.981592 -2.9095516 0.26907945
19.971586 -3.0003843 0.18177247
19.961586 -3.0911725 0.094482183
19.924292 -1.4943831 2.8206861
19.906971 -1.6187279 2.7468688
19.889662 -1.7430111 2.6730995
19.90164 -1.7340275 2.5438766
19.884335 -1.8582767 2.4701672
19.88167 -1.9159095 2.3687005
19.879005 -1.9735428 2.2672343
19.876343 -2.0311756 2.1657679
19.86636 -2.1220617 2.0782454
19.878332 -2.1131964 1.9488769
19.882988 -2.1375737 1.8334086
19.880322 -2.1952236 1.7319125
19.877659 -2.2528732 1.6304164
19.867674 -2.3437614 1.5429519
19.872328 -2.3681719 1.4274259
19.862345 -2.4590433 1.3399912
19.859682 -2.516685 1.2385101
19.857016 -2.574326 1.1370289
19.861671 -2.5987701 1.0214429
19.866325 -2.6232297 0.9058305
19.863663 -2.6808882 0.80431938
19.868319 -2.7053723 0.68866396
19.865652 -2.7630389 0.58713794
19.870312 -2.7875211 0.47142434
19.867643 -2.8451958 0.36988515
19.872303 -2.8697035 0.25412655
19.862314 -2.9605453 0.16680491
19.852325 -3.0513692 0.079514742
19.790407 -1.6120493 2.7461355
19.773134 -1.7363343 2.6723664
19.785078 -1.7273488 2.5431433
19.767805 -1.8516002 2.4694338
19.757833 -1.9425117 2.3818681
19.762478 -1.9668657 2.2665009
19.759813 -2.0244989 2.1650348
19.749844 -2.115386 2.0775125
19.761784 -2.1065183 1.9481436
19.766424 -2.1308947 1.8326753
19.76376 -2.1885445 1.7311792
19.761095 -2.2461948 1.6296833
19.75843 -2.3038433 1.5281886
19.755766 -2.3614931 1.4266925
19.745798 -2.4523656 1.3392581
19.750435 -2.4767919 1.223702
19.747772 -2.5344417 1.1222057
19.752413 -2.5588927 1.0066065
19.757053 -2.58336 0.89097911
19.754387 -2.6410258 0.78945482
19.759027 -2.6654909 0.67376918
19.756361 -2.7231653 0.57222998
19.753696 -2.7808399 0.47069079
19.758339 -2.8053381 0.35494715
19.762983 -2.8298516 0.23917699
19.753006 -2.9207036 0.15183878
19.743032 -3.0115378 0.064532161
19.656605 -1.7296574 2.6716332
19.668518 -1.7206702 2.5424099
19.651276 -1.844923 2.4687006
19.641325 -1.935836 2.3811352
19.63866 -1.9934602 2.2796836
19.635998 -2.0510848 2.1782324
19.626049 -2.1419504 2.0907192
19.645241 -2.0998406 1.9474105
19.642574 -2.1574819 1.8459293
19.6472 -2.1818662 1.7304461
19.637245 -2.2727647 1.6429669
19.634583 -2.330406 1.5414855
19.639206 -2.3548145 1.4259592
19.621973 -2.4788847 1.3525716
19.633877 -2.4701133 1.2229687
19.631212 -2.5277631 1.1214726
19.635836 -2.5522132 1.0058731
19.640457 -2.5766795 0.89024568
19.637791 -2.6343453 0.78872138
19.635126 -2.6920111 0.68719703
19.639751 -2.7164841 0.57149643
19.637085 -2.7741582 0.46995711
19.634418 -2.8318324 0.36841786
19.639042 -2.856338 0.25265932
19.626421 -3.0048563 0.063798666
19.54734 -1.6896749 2.6570423
19.559227 -1.6806653 2.5277939
19.534748 -1.8382462 2.4679675
19.517544 -1.9624267 2.3942974
19.522148 -1.9867845 2.2789507
19.519485 -2.0444088 2.1774995
19.509554 -2.1352756 2.0899863
19.528692 -2.0931628 1.9466773
19.526028 -2.1508036 1.845196
19.523363 -2.2084453 1.7437148
19.520699 -2.2660866 1.6422336
19.518034 -2.3237281 1.5407524
19.515371 -2.3813691 1.4392712
19.505444 -2.472208 1.3518386
19.510042 -2.4966512 1.2363105
19.514648 -2.5210843 1.1207392
19.519251 -2.5455332 1.0051398
19.531136 -2.5367782 0.87538207
19.521194 -2.6276646 0.78798789
19.525805 -2.6521277 0.67230201
19.523138 -2.7098022 0.57076281
19.520473 -2.7674766 0.46922356
19.525082 -2.7919726 0.35347974
19.52969 -2.8164842 0.2377094
19.509809 -2.9981747 0.063065052
19.430799 -1.6829973 2.6563091
19.442652 -1.6739857 2.5270605
19.418221 -1.8315693 2.4672346
19.408298 -1.9224839 2.3796694
19.405634 -1.9801084 2.2782178
19.402971 -2.0377328 2.1767666
19.393063 -2.1286006 2.0892534
19.412149 -2.0864849 1.9459441
19.409485 -2.1441264 1.8444629
19.40682 -2.2017674 1.7429816
19.404156 -2.259409 1.6415005
19.401491 -2.3170505 1.5400193
19.398829 -2.3746917 1.4385381
19.396164 -2.432332 1.3370585
19.400751 -2.4567556 1.2215021
19.398088 -2.5144055 1.120006
19.402676 -2.5388534 1.0044063
19.414522 -2.5300965 0.87464863
19.411858 -2.5877717 0.77310771
19.409191 -2.6454463 0.67156845
19.413782 -2.6699238 0.55585599
19.411118 -2.7276075 0.45430011
19.408449 -2.7852902 0.35274601
19.427568 -2.7434027 0.20851457
19.345898 -1.4852746 2.7016263
19.314255 -1.6763196 2.655576
19.326075 -1.6673062 2.5263271
19.308928 -1.7916012 2.4526153
19.29179 -1.9158083 2.3789363
19.303598 -1.9068842 2.2496529
19.293701 -1.9977915 2.1621027
19.2838 -2.0886824 2.0745807
19.295607 -2.079807 1.9452109
19.29294 -2.1374488 1.8437297
19.290277 -2.1950898 1.7422485
19.287611 -2.2527311 1.6407672
19.277716 -2.3435886 1.5533048
19.275053 -2.4012213 1.4518386
19.279619 -2.4256542 1.3363254
19.284189 -2.4500771 1.2207688
19.281525 -2.5077269 1.1192727
19.286098 -2.5321741 1.0036731
19.297911 -2.5234151 0.87391508
19.288004 -2.6143031 0.78652084
19.292582 -2.6387646 0.6708349
19.297155 -2.6632411 0.55512232
19.287249 -2.7541132 0.46775627
19.284582 -2.8117876 0.3662172
19.289156 -2.8362904 0.25045824
19.276585 -2.9848113 0.061597824
19.222052 -1.5119658 2.7147593
19.183268 -1.7362592 2.6825576
19.202269 -1.6939549 2.5394769
19.170723 -1.8847861 2.493535
19.160843 -1.9756708 2.4059958
19.172613 -1.9667568 2.276752
19.162733 -2.0576348 2.189224
19.16007 -2.1152506 2.0877876
19.179058 -2.0731294 1.9444778
19.176394 -2.1307707 1.8429966
19.166513 -2.2216458 1.7555044
19.163851 -2.2792788 1.6540382
19.161184 -2.3369117 1.5525719
19.151306 -2.4277537 1.4651377
19.155857 -2.4521773 1.3496394
19.167625 -2.4433982 1.2200357
19.164961 -2.5010478 1.1185393
19.162298 -2.5586977 1.0170434
19.174074 -2.5499566 0.8873117
19.171408 -2.6076224 0.78578734
19.168743 -2.6652882 0.68426305
19.173302 -2.6897573 0.56856203
19.170637 -2.7474315 0.46702272
19.167969 -2.8051059 0.36548358
19.172525 -2.8296077 0.24972439
19.155416 -2.9536195 0.17663813
19.15275 -3.0112853 0.075114012
19.066757 -1.7295833 2.6818247
19.078499 -1.7206044 2.5526302
19.047028 -1.9113895 2.5066845
19.037174 -2.0022535 2.4191525
19.048903 -1.9933431 2.2899296
19.046238 -2.0509598 2.1884913
19.043577 -2.1085758 2.087055
19.062513 -2.0664515 1.9437445
19.059849 -2.1240928 1.8422633
19.057184 -2.1817343 1.7407823
19.047323 -2.2726021 1.6533051
19.044659 -2.3302348 1.5518388
19.041996 -2.3878677 1.4503726
19.03933 -2.4455006 1.3489063
19.051062 -2.4367194 1.2193023
19.048399 -2.4943693 1.1178062
19.045734 -2.5520191 1.01631
19.057478 -2.5432758 0.8865782
19.054811 -2.6009419 0.78505385
19.052147 -2.6586077 0.68352956
19.063894 -2.6498756 0.55365485
19.054022 -2.7407498 0.46628928
19.051355 -2.798424 0.36475003
19.055897 -2.8229251 0.24899065
19.03882 -2.9469385 0.17590463
19.028952 -3.0377343 0.088614941
19.019087 -3.1285136 0.0013552904
18.981665 -1.5319512 2.7271473
18.957434 -1.6895964 2.6672349
18.969145 -1.6805978 2.5380106
18.937733 -1.8714365 2.4920692
18.927885 -1.9623227 2.4045303
18.939589 -1.9534049 2.275286
18.936926 -2.0110292 2.1738346
18.934263 -2.0686548 2.0723817
18.945967 -2.0597734 1.9430113
18.9433 -2.117415 1.8415303
18.933458 -2.2082922 1.7540383
18.930794 -2.2659252 1.652572
18.920944 -2.3567767 1.5651249
18.903921 -2.4807947 1.4917284
18.90844 -2.5052145 1.3762636
18.920137 -2.4964566 1.246707
18.91029 -2.587275 1.1593177
18.91481 -2.6117225 1.0437744
18.92651 -2.6029894 0.91408229
18.923845 -2.6606393 0.81258619
18.928364 -2.6851079 0.6969431
18.940073 -2.6763937 0.56709492
18.923033 -2.8004234 0.49392259
18.927553 -2.8249254 0.37822145
18.932076 -2.8494167 0.26247728
18.915037 -2.9733975 0.18939102
18.898006 -3.0973151 0.11635482
18.902529 -3.1218348 0.00062215328
18.882109 -1.4008734 2.800231
18.857912 -1.5586193 2.7402692
18.826565 -1.7495289 2.6942112
18.838238 -1.7405524 2.5650353
18.806911 -1.9313078 2.5190954
18.804249 -1.9889076 2.4176874
18.808746 -2.0132575 2.3023744
18.798923 -2.1041064 2.2148724
18.803421 -2.1284735 2.0995297
18.807922 -2.152842 1.9841528
18.805262 -2.2104588 1.8827146
18.795433 -2.3012965 1.7952635
18.79277 -2.3589051 1.6938403
18.782949 -2.4497044 1.6064264
18.773129 -2.5404739 1.519033
18.777626 -2.5649042 1.4036099
18.782118 -2.5893366 1.2881509
18.772301 -2.6801028 1.2007949
18.783957 -2.6713881 1.0712199
18.795616 -2.6626787 0.94157505
18.785789 -2.7534738 0.85422903
18.797451 -2.7447903 0.72450709
18.80912 -2.7360864 0.59469861
18.792122 -2.8600729 0.52154487
18.803789 -2.851402 0.39167809
18.80829 -2.8759115 0.275962
18.784128 -3.0329962 0.21710289
18.774305 -3.1237414 0.12984478
18.850594 -0.77111435 3.1692243
18.862307 -0.7618233 3.0398645
18.765493 -1.3941917 2.7994976
18.734192 -1.5852891 2.7533917
18.702921 -1.7761517 2.7073309
18.707409 -1.8004696 2.592042
18.683306 -1.9578886 2.532232
18.680643 -2.01548 2.4308386
18.685125 -2.0398347 2.3155465
18.67532 -2.1306629 2.2280521
18.672659 -2.1882532 2.1266603
18.677139 -2.2126334 2.0113235
18.674477 -2.2702327 1.9099168
18.664671 -2.3610277 1.8224804
18.66201 -2.4186192 1.7210871
18.65221 -2.5093894 1.6336956
18.642412 -2.6001282 1.5463278
18.646887 -2.6245551 1.4309387
18.658503 -2.6158309 1.301469
18.648699 -2.7065752 1.2141221
18.653177 -2.7310297 1.098654
18.657654 -2.755487 0.9831503
18.647854 -2.8462288 0.89583921
18.659473 -2.8375621 0.76617599
18.67824 -2.795754 0.62229276
18.661285 -2.9196708 0.54914212
18.672915 -2.9110367 0.41933036
18.677395 -2.9355288 0.30364215
18.646156 -3.1256433 0.25899053
18.643492 -3.1832604 0.1575526
18.662256 -3.1416011 0.01340735
18.726646 -0.79793429 3.1823058
18.723978 -0.8556838 3.0806341
18.651548 -1.3298359 2.9003034
18.641735 -1.4208956 2.8126178
18.61051 -1.6119331 2.7665019
18.572186 -1.8360338 2.7342863
18.576647 -1.8603617 2.6190383
18.559732 -1.9844706 2.5453703
18.55707 -2.0420535 2.4439919
18.561539 -2.0663996 2.3287129
18.558876 -2.123991 2.2273195
18.556215 -2.1815817 2.1259279
18.560673 -2.2059603 2.0105908
18.55089 -2.2967644 1.9231411
18.541101 -2.3875511 1.8357216
18.538439 -2.4451342 1.7343431
18.528658 -2.5358837 1.6469591
18.525999 -2.5934579 1.5455955
18.530455 -2.6178839 1.4302062
18.534918 -2.642312 1.314783
18.532257 -2.6999037 1.2133896
18.536711 -2.7243564 1.0979215
18.541174 -2.7488127 0.98241746
18.531387 -2.8395555 0.89510661
18.535849 -2.8640287 0.7795729
18.547436 -2.8553708 0.6498605
18.537651 -2.94612 0.56256872
18.542109 -2.9706192 0.44695777
18.539446 -3.0282435 0.34550631
18.508299 -3.2182255 0.30085123
18.512751 -3.2427533 0.18525219
18.531454 -3.2011178 0.041150689
18.588436 -0.89174271 3.2229943
18.58577 -0.94946599 3.1213689
18.568815 -1.0741009 3.0473905
18.520678 -1.3899176 2.9272325
18.518013 -1.4475749 2.8257232
18.472622 -1.7051954 2.8072886
18.448633 -1.8626337 2.7473946
18.445971 -1.9202166 2.6460161
18.429094 -2.0442684 2.5723605
18.433538 -2.0686159 2.4571378
18.437986 -2.0929656 2.341881
18.435324 -2.1505482 2.2405026
18.432663 -2.2081316 2.1391242
18.430002 -2.2657144 2.037746
18.42734 -2.3232975 1.9363675
18.41757 -2.4140637 1.8489554
18.414911 -2.471638 1.7475919
18.405148 -2.5623658 1.6602169
18.402487 -2.6199317 1.5588684
18.406925 -2.6443627 1.4434998
18.411369 -2.6687961 1.3280954
18.408707 -2.7263789 1.226717
18.413151 -2.7508228 1.1112636
