# .PCD v0.7 - Point Cloud Data file format
VERSION 0.7
FIELDS x y z
SIZE 4 4 4
TYPE F F F
COUNT 1 1 1
WIDTH 1502
HEIGHT 1
VIEWPOINT 0 0 0 1 0 0 0
POINTS 1502
DATA ascii
-6.567894 4.3045516 -4.652472
-6.5723143 -4.7862759 -4.2073278
-6.5682573 -4.5997467 -4.3493948
-6.5832539 -4.4295673 -4.461071
-6.4853549 -2.7829411 -4.4728661
-6.5626807 -2.507874 -4.4833832
-6.6610532 -2.2592039 -4.4779329
-6.5007772 2.2692516 -4.5630198
-6.5975761 4.4452162 -4.4989405
-6.6038747 4.6321106 -4.3559322
-6.5831203 -5.1187768 -3.943892
-6.5881033 -4.9379926 -4.0908947
-6.6175923 4.7866282 -4.2423162
-6.6094785 4.9724836 -4.0985823
-6.5843525 -5.4224148 -3.6536484
-6.586257 -5.2668405 -3.8090303
-6.6199503 5.1231785 -3.9696202
-6.6173973 5.2805705 -3.8264585
-6.5835123 -5.6923928 -3.3387403
-6.5857611 -5.5698385 -3.4902413
-6.6307397 5.4304686 -3.6746264
-6.6245422 5.5663757 -3.5217586
-6.5865998 -5.9424171 -2.9885931
-6.5889897 -5.8389034 -3.1376805
-6.6368766 5.7135763 -3.3389053
-6.630465 5.8201618 -3.1954482
-6.5958872 -6.0553975 -2.8121824
-6.6396847 5.9658761 -2.9741812
-6.6009607 -6.2662959 -2.4449427
-6.6073999 -6.1854568 -2.5913973
-6.6487384 6.0664225 -2.8025725
-6.640749 6.1528101 -2.657124
-6.6050038 -6.3774509 -2.2137885
-6.6389112 6.3053889 -2.3702354
-6.6034498 -6.5382676 -1.825506
-6.6071343 -6.4796109 -1.9751785
-6.6812725 6.3795505 -2.2138753
-6.6429329 6.4412279 -2.0768349
-6.6124692 -6.6138563 -1.608413
-6.6544852 6.5648432 -1.7729383
-6.6142635 -6.7102256 -1.302917
-6.665328 6.6573462 -1.5080436
-6.6528249 6.7029614 -1.3576595
-6.6204805 -6.8091359 -0.89890909
-6.6163616 -6.7785363 -1.0423782
-6.6659889 6.7494726 -1.1807384
-6.6236391 -6.841186 -0.70813298
-6.6662493 6.8106132 -0.87775028
-6.6261425 -6.8705654 -0.40631557
-6.6704674 6.8513293 -0.57393146
-6.631958 -6.8792605 -0.10404992
-6.6766915 6.866118 -0.28217816
-6.6334538 -6.8558788 0.19831395
-6.6784 6.8501568 0.020297766
-6.6353412 -6.8109403 0.47773981
-6.6420536 -6.7774463 0.63101125
-6.6823435 6.8079758 0.32671356
-6.6410904 -6.737247 0.79885602
-6.7041917 6.7142816 0.75154805
-6.6898584 6.7520618 0.60552263
-6.6424985 -6.6489964 1.0933716
-6.6939754 6.6648488 0.92853022
-6.6438932 -6.5413857 1.3962348
-6.692771 6.5663915 1.2325494
-6.6366577 -6.4764237 1.5615814
-6.6510386 -6.412169 1.7064288
-6.6949897 6.4093032 1.630408
-6.6915417 6.4727888 1.4818728
-6.6504927 -6.2757187 1.9924963
-6.697485 6.3164487 1.8314316
-6.6535201 -6.1801744 2.1695664
-6.6626711 -6.0918694 2.317199
-6.7052517 6.1057391 2.2260997
-6.6965313 6.1915083 2.0768063
-6.6629143 -5.9421172 2.5554454
-6.672471 -5.8324151 2.7089942
-6.6960025 5.9794874 2.4347799
-6.6740947 -5.6995006 2.881706
-6.6997414 5.7554212 2.7618191
-6.6857462 5.8660302 2.6113522
-6.6643023 -5.5628114 3.0470741
-6.6747141 -5.4305658 3.198271
-6.7116489 5.4716253 3.1045907
-6.6983695 5.6074748 2.952637
-6.6647587 -5.2788968 3.3603804
-6.6692939 -5.1187096 3.505336
-6.7152891 5.164175 3.4087174
-6.7073441 5.3231177 3.2586906
-6.6573906 -4.9608274 3.6406043
-6.6770105 -4.7938986 3.7679045
-6.6965904 -4.6162868 3.8989298
-6.7064371 4.8189039 3.6894853
-6.7163172 5.0144763 3.5408857
-6.668232 -4.4648099 4.0430498
-6.7087231 -4.3041978 4.1866064
-6.6270828 -2.9227302 4.174963
-6.6593962 -2.6819594 4.1656685
-6.6609745 -2.4013231 4.1568918
-6.6443176 -2.119206 4.1602087
-6.5666099 -1.8433449 4.180439
-6.5493479 -1.5537938 4.1787415
-6.5600314 1.6299551 4.1397419
-6.6584835 1.8506964 4.1236382
-6.6643248 2.1231518 4.1092253
-6.6830983 2.4267862 4.0854416
-6.6633358 2.7134874 4.0844488
-6.6575332 2.9416664 4.0928173
-6.7490416 4.3394542 4.074522
-6.6968141 4.5036459 3.945565
-6.6607304 4.6782002 3.8173664
-6.6799793 -4.1757398 4.3636522
-6.7877264 -4.0240769 4.4830608
-6.6509724 -3.2140033 4.4135122
-6.7071609 -3.0122595 4.3122492
-6.7248693 -2.7019026 4.2374144
-6.7567945 -2.3938558 4.2063236
-6.737381 -2.0784979 4.2023239
-6.7283411 -1.8003937 4.2022171
-6.7364097 -1.5064576 4.2024212
-6.7818723 -1.2822353 4.2076693
-6.8171916 1.3249228 4.1783276
-6.748178 1.5576284 4.1652479
-6.7404671 1.8193091 4.1571369
-6.7554755 2.1098287 4.1488857
-6.773984 2.4245584 4.1430664
-6.7729082 2.7387416 4.1602345
-6.7218986 3.0404751 4.2264299
-6.6762161 3.2615092 4.3361177
-6.7129431 4.2390695 4.2637148
-6.6428761 4.3793044 4.1141815
-6.6527648 -4.0610557 4.5513639
-6.6971273 -3.9071271 4.6807871
-6.6636019 -3.5454466 4.7278643
-6.7088323 -3.3044455 4.6258335
-6.821187 -3.1089399 4.5229292
-6.7481632 3.369982 4.5160036
-6.6962028 3.588526 4.6219225
-6.7259698 3.9530237 4.6093283
-6.7013621 4.122736 4.4864292
-6.6903667 -3.7845221 4.8416328
-6.7146244 -3.5836101 4.8535194
-6.7862005 -3.3899925 4.8249874
-6.8393211 3.4548843 4.7250986
-6.7551188 3.6513145 4.7589102
-6.7192826 3.851867 4.7447405
-6.2337351 -4.17168 -5.0848966
-6.2726665 -3.9783227 -5.1506472
-6.2901664 -3.745918 -5.1552162
-6.3149548 3.5660744 -5.2423668
-6.2940521 3.7887123 -5.2542057
-6.2654195 3.9757802 -5.2143478
-6.268208 -4.2395391 -4.9075108
-6.2746611 -4.0548296 -5.0379086
-6.2475739 -3.6515832 -5.0038214
-6.3044057 -3.4727778 -4.8828936
-6.3451872 3.2923949 -4.9359407
-6.2851667 3.4607725 -5.057642
-6.2986569 3.8035572 -5.1668124
-6.2933598 4.0845723 -5.0382495
-6.2444878 -4.4787278 -4.5193043
-6.2804642 -4.3608575 -4.6529121
-6.2543216 -3.3541012 -4.7041411
-6.307066 -3.131367 -4.5942221
-6.3579941 -2.8247149 -4.5410814
-6.3584776 -2.4957397 -4.5346127
-6.3804054 -2.2221613 -4.555892
-6.3844056 -2.0066864 -4.5806971
-6.3250508 -0.27118289 -4.5955176
-6.4275041 1.2153679 -4.6361389
-6.401536 1.414028 -4.6328459
-6.3895168 1.7168324 -4.6377554
-6.3515077 2.0066552 -4.6311984
-6.3236446 2.303525 -4.6223745
-6.3443584 2.6254644 -4.6247873
-6.3237033 2.9185796 -4.6737032
-6.2941875 3.1893861 -4.7770081
-6.207449 3.372956 -4.8117237
-6.3272729 4.2085299 -4.8249149
-6.2890615 4.3218999 -4.6944447
-6.2668662 -4.7835317 -4.2113123
-6.2767534 -4.6102157 -4.356123
-6.3648376 -4.4317932 -4.4767141
-6.1520267 -3.5197597 -4.4239216
-6.2070136 -3.0250447 -4.4628277
-6.2723398 -2.7975464 -4.4241929
-6.2969666 -2.557056 -4.4429975
-6.3391666 -2.2603896 -4.5033102
-6.3875642 2.3727546 -4.5537767
-6.265336 2.6038086 -4.5311251
-6.1942453 2.772675 -4.5606527
-6.1802258 3.1075497 -4.5528674
-6.3161592 4.4657202 -4.5119977
-6.3065372 4.6380849 -4.3679442
-6.2746282 -5.1239452 -3.9446568
-6.2799134 -4.9402056 -4.0925322
-6.3134513 4.7981071 -4.2437148
-6.3180137 4.971797 -4.1031852
-6.2772837 -5.4248457 -3.65607
-6.2859635 -5.2703624 -3.8099389
-6.3196807 5.1292348 -3.9683743
-6.318737 5.2881265 -3.8218102
-6.2815862 -5.6994658 -3.3373716
-6.286788 -5.5728278 -3.4920645
-6.322197 5.4355607 -3.6710515
-6.3164654 5.5680771 -3.5234156
-6.2784729 -5.9470239 -2.9891844
-6.2796884 -5.8438506 -3.1398699
-6.324574 5.7152686 -3.3396182
-6.3288331 5.8259201 -3.1921148
-6.2834382 -6.0609589 -2.8095086
-6.3277187 5.9715681 -2.9722381
-6.2962828 -6.2643433 -2.4469404
-6.2893314 -6.1870365 -2.5907662
-6.3433104 6.0701475 -2.8055723
-6.3303165 6.1618772 -2.6521196
-6.2985406 -6.3808708 -2.2059007
-6.3343711 6.3128409 -2.3653779
-6.3090734 -6.539104 -1.8298233
-6.2994819 -6.4800482 -1.9775331
-6.3444238 6.4482565 -2.0708365
-6.3077922 -6.6186137 -1.6058576
-6.3485603 6.5694141 -1.7720115
-6.3087258 -6.7145419 -1.2948673
-6.3544335 6.6604629 -1.5086012
-6.3562655 6.7056012 -1.3630539
-6.3129053 -6.8099012 -0.89743257
-6.3143816 -6.779212 -1.0399706
-6.3572254 6.7527499 -1.178674
-6.3149261 -6.8403239 -0.70134926
-6.359766 6.8126297 -0.87740731
-6.3154631 -6.868824 -0.40755796
-6.3637753 6.8521848 -0.56796861
-6.3185601 -6.8763027 -0.10020947
-6.3686504 6.8648953 -0.27566099
-6.3192539 -6.8542366 0.19887662
-6.3734965 6.8509622 0.01905036
-6.315094 -6.8085337 0.494807
-6.3308277 -6.7775421 0.63996482
-6.3692789 6.8094182 0.3301208
-6.3273234 -6.7385421 0.80198884
-6.3789215 6.7162919 0.76041484
-6.3724036 6.753665 0.61319566
-6.3345504 -6.6505857 1.0987124
-6.3715978 6.6695623 0.9325521
-6.3387194 -6.5448723 1.4005735
-6.3847485 6.5700998 1.2362657
-6.3447614 -6.47895 1.5676496
-6.3422785 -6.4160628 1.7127416
-6.4078636 6.4116235 1.6369021
-6.3892803 6.4733601 1.4935462
-6.3432546 -6.2825055 1.9920795
-6.3975601 6.3191924 1.8367608
-6.3536501 -6.1824384 2.1777275
-6.3524208 -6.0968704 2.322057
-6.4004078 6.1089225 2.2340939
-6.3999557 6.1921477 2.0862329
-6.3563247 -5.944509 2.5629065
-6.3639555 -5.8381481 2.7121475
-6.3995581 5.9832673 2.4423716
-6.3730478 -5.7101688 2.882148
-6.3977847 5.7576447 2.7726233
-6.4017119 5.8665614 2.6225016
-6.3580971 -5.5704503 3.0558751
-6.3767238 -5.4314861 3.211796
-6.3997741 5.4755363 3.114063
-6.4007173 5.6096411 2.9623969
-6.3642483 -5.2836719 3.3686535
-6.3701468 -5.1208224 3.5183709
-6.4077878 5.1720185 3.4167917
-6.4056983 5.3290982 3.2674887
-6.3554401 -4.972774 3.6470697
-6.3726549 -4.7998209 3.7789729
-6.3771138 -4.6198602 3.9148257
-6.5002556 4.6481109 3.80038
-6.4043436 4.8265224 3.7003291
-6.4005423 5.0163298 3.5519426
-6.2657862 -4.6403298 3.9380591
-6.3789344 -4.4734511 4.0668831
-6.4358611 -4.3200169 4.2018862
-6.309402 -3.1871111 4.1765928
-6.3710594 -2.9816301 4.1485367
-6.4141927 -2.6891925 4.1313086
-6.4148445 -2.4082725 4.1262331
-6.4342442 -2.0993299 4.15483
-6.4797969 -1.844063 4.1681557
-6.4997444 -1.5835849 4.1715374
-6.4388452 0.047511294 4.1281118
-6.5204272 1.6299173 4.1341248
-6.499692 1.8292876 4.1245623
-6.4779921 2.1322136 4.0999699
-6.436296 2.4429586 4.0584249
-6.4263391 2.7331016 4.037468
-6.3989482 3.008647 4.0677299
-6.3185234 3.2301452 4.0961123
-6.2842131 3.4790528 4.026886
-6.5363612 4.3550677 4.0988684
-6.4125972 4.5287614 3.9658878
-6.3959966 4.6892829 3.828542
-6.2943597 -4.3479657 4.2382078
-6.3928528 -4.2254176 4.3714895
-6.3148417 -3.4629002 4.4780731
-6.3883471 -3.2849073 4.3571396
-6.4367266 -3.0234749 4.2416906
-6.5228 -2.8051684 4.2039795
-6.4804697 3.0867703 4.1535969
-6.420258 3.3284445 4.2606621
-6.3535285 3.5147412 4.3709803
-6.4219499 4.288981 4.2860432
-6.3777895 4.398921 4.156251
-6.3874502 -4.0874605 4.5895681
-6.3951778 -3.899133 4.7216034
-6.3876171 -3.557833 4.6709042
-6.4587231 -3.3868363 4.5753946
-6.5261545 3.4412308 4.4526024
-6.4261761 3.623049 4.5468693
-6.409338 3.9325511 4.6369524
-6.4134231 4.159771 4.5126562
-6.4144111 -3.7897761 4.8276548
-6.4422617 -3.657275 4.8297119
-6.5063629 3.7237644 4.7288208
-6.4502177 3.8651636 4.7287493
-5.9455481 -4.1673117 -5.0973244
-5.9719639 -3.9927702 -5.1280985
-6.0142221 -3.800014 -5.1170959
-6.0552425 3.6187325 -5.2072439
-6.0003986 3.8025501 -5.2258959
-5.9939475 3.9984658 -5.2108822
-5.9650888 -4.2765551 -4.9226294
-5.9583359 -4.0151582 -5.0429759
-5.9820299 -3.6958981 -4.9338479
-6.0825577 -3.5270023 -4.8117676
-6.0113978 3.5314825 -5.0191693
-5.9727893 3.7713521 -5.1364889
-6.0016775 4.1196861 -5.0485964
-5.9418478 4.269732 -4.9251432
-5.9573927 -4.4947491 -4.5604606
-5.9873943 -4.3920207 -4.6895137
-5.9097633 -3.5936174 -4.6980152
-6.0043159 -3.4243572 -4.6253233
-6.047946 -3.1846924 -4.5230622
-6.0292692 -1.5590547 -4.5237937
-5.9852939 -0.17902289 -4.5329294
-6.0382738 1.174647 -4.5601745
-6.0816064 2.345094 -4.577507
-6.0268755 2.6224597 -4.5910993
-6.0504813 2.9208751 -4.6059742
-6.0562487 3.2337244 -4.687108
-5.9718289 3.4350667 -4.7686472
-6.0481806 4.2330794 -4.8612432
-5.9992404 4.3526187 -4.7304101
-5.9696674 -4.7903099 -4.218627
-5.978291 -4.6343656 -4.3648014
-5.9389873 -3.5863435 -4.4182715
-5.9228463 -3.3641527 -4.4232359
-5.9926586 -3.0999715 -4.4141927
-6.0061393 -2.82037 -4.3537178
-6.0612226 -2.6376314 -4.3364353
-5.8700771 -2.058459 -4.4827976
-5.877244 -1.8851908 -4.4868279
-5.8680129 -1.6951575 -4.4884591
-5.8631973 -0.26226044 -4.5039425
-5.8834991 -0.10237451 -4.5089254
-5.8776269 0.10431342 -4.5102453
-5.8888807 1.7096196 -4.5290999
-5.884366 1.9269701 -4.5302448
-5.9355125 2.3412142 -4.5504351
-6.019062 2.6340935 -4.4690781
-5.9853024 2.8792353 -4.5208769
-5.9704852 3.1861763 -4.4937692
-5.9469295 3.4577534 -4.4625654
-6.0160594 4.4957328 -4.5287113
-6.0115304 4.6438146 -4.3843927
-5.9854479 -5.1242843 -3.9481969
-5.9844999 -4.9456425 -4.0918388
-5.9366965 3.5768261 -4.2124329
-6.0211515 4.805829 -4.2475529
-6.0236287 4.9801998 -4.1039796
-5.982656 -5.4257178 -3.658977
-5.984549 -5.2746019 -3.8088441
-6.042881 5.1313705 -3.9732194
-6.020741 5.2875376 -3.8288186
-5.9828663 -5.7012386 -3.3425341
-5.9873123 -5.5704288 -3.4986663
-6.0226965 5.4391079 -3.6709952
-6.0233455 5.5696568 -3.5258162
-5.9879751 -5.948503 -2.9940906
-5.9901156 -5.8449864 -3.1456213
-6.0355153 5.7184772 -3.3393896
-6.0354156 5.829741 -3.190948
-5.9930038 -6.0646482 -2.809648
-6.0301967 5.9788718 -2.9675906
-5.9912567 -6.2649693 -2.4472909
-5.9971514 -6.1877956 -2.594481
-6.0488882 6.0745549 -2.8066287
-6.0363255 6.1658893 -2.6552763
-5.9968872 -6.3835812 -2.2036533
-6.0396643 6.3162541 -2.3681393
-6.0433745 6.386662 -2.2253654
-6.0030074 -6.5413094 -1.8245046
-6.002367 -6.4823947 -1.9754236
-6.0476093 6.4514022 -2.0706546
-6.005877 -6.6192403 -1.6042721
-6.0492659 6.5713429 -1.7739595
-6.0052819 -6.712379 -1.2947893
-6.0556803 6.6618938 -1.5088698
-6.0548739 6.7072468 -1.3604703
-6.0118666 -6.807858 -0.89237547
-6.0090389 -6.7788339 -1.0330498
-6.0562329 6.7531276 -1.1778132
-6.0122724 -6.8370972 -0.69754124
-6.0636473 6.8116665 -0.87156725
-6.0161304 -6.8639655 -0.40275502
-6.0650535 6.848598 -0.57156968
-6.0199838 -6.8712873 -0.097993135
-6.0671778 6.8621459 -0.26988864
-6.0190101 -6.8501339 0.20755458
-6.070169 6.8484497 0.027509689
-6.0218616 -6.8077006 0.49170113
-6.0234179 -6.7771893 0.63877106
-6.072587 6.8096457 0.33204675
-6.0285497 -6.7387619 0.80388379
-6.0688381 6.7186894 0.76104522
-6.0689321 6.7567554 0.61029887
-6.0423422 -6.6503067 1.1079824
-6.0715246 6.6720061 0.93584466
-6.0410223 -6.5467992 1.4053323
-6.0854673 6.5764074 1.232805
-6.0378671 -6.4779773 1.5779908
-6.0460367 -6.4144139 1.725383
-6.099215 6.4161067 1.6427109
-6.0842428 6.4760361 1.5026476
-6.0473056 -6.2852683 1.9944537
-6.0967889 6.3302956 1.8297656
-6.0627961 -6.1826072 2.1855028
-6.0625129 -6.0970674 2.3329599
-6.1007557 6.113565 2.2421834
-6.0945849 6.1987324 2.0887792
-6.0534129 -5.9481468 2.5691807
-6.0625348 -5.8382773 2.724539
-6.1048422 5.9924483 2.4445646
-6.0550742 -5.712142 2.8925655
-6.109786 5.7639503 2.7785633
-6.1020269 5.8706031 2.6329339
-6.0648909 -5.5756536 3.0634768
-6.0703287 -5.4355311 3.2202699
-6.1126881 5.4798179 3.1206515
-6.1092649 5.61655 2.9662354
-6.0690269 -5.2872477 3.3771393
-6.0727129 -5.1342626 3.520653
-6.1136384 5.176291 3.4245651
-6.1102805 5.3334212 3.2749379
-6.0691452 -4.9775524 3.6592786
-6.0715098 -4.8065357 3.7948391
-6.1374745 -4.619586 3.9195178
-5.9819736 -3.4886887 3.9065864
-5.982306 3.5773275 3.7815464
-6.10711 4.8421931 3.7047846
-6.1077433 5.0278401 3.5566666
-6.0666418 -4.6494656 3.9423416
-6.0827546 -4.4938302 4.0896864
-6.2010136 -4.3333211 4.1897583
-6.0144005 -3.464617 4.1405191
-6.0659361 -3.2536635 4.126276
-6.107707 -2.9930236 4.122261
-6.1038852 -2.6972606 4.0738735
-6.1152968 -2.4452369 4.0672016
-6.0384135 -2.0134773 4.087594
-5.9824085 -1.7758379 4.0724707
-5.9731679 -1.5858183 4.0697298
-6.1392169 -1.3193593 4.0971384
-5.9672761 -0.15284084 4.0550556
-6.0902381 0.045753077 4.0708609
-5.9817166 0.21377255 4.0518351
-6.1485019 1.414354 4.0624905
-5.9937739 1.8189088 4.0237999
-5.9892163 2.036222 4.019721
-6.1115375 2.500989 3.9703004
-6.1202202 2.7323935 3.9800112
-6.1189394 3.0205846 4.0325661
-6.0924029 3.2872522 4.0545769
-6.0704646 3.5313141 4.0109892
-6.1172032 4.5612364 3.9882047
-6.1034513 4.6968231 3.8423455
-6.0614882 -4.3600125 4.2724419
-6.0966134 -4.2502832 4.4062595
-6.0687284 -3.5158579 4.4163961
-6.1238961 -3.340904 4.2924261
-6.2109752 -3.0957015 4.2136545
-6.1640396 3.3780982 4.1873665
-6.1052222 3.5864408 4.3080387
-6.0567136 3.8172169 4.3992424
-6.1362891 4.3174515 4.3410807
-6.0984788 4.432282 4.2124596
-6.0760832 -4.1205239 4.6065645
-6.0915599 -3.8729358 4.7128897
-6.1187387 -3.6176112 4.6393337
-6.1459742 3.6894791 4.5225334
-6.115921 3.9207351 4.6163712
-6.1077037 4.1972251 4.5162344
-6.2240858 -3.7829187 4.8159113
-5.6696043 -4.1726141 -5.0855465
-5.7076955 -4.0200558 -5.1005859
-5.7962313 -3.8457205 -5.0947132
-5.7447023 3.8440626 -5.1985636
-5.7190518 4.0039449 -5.1964378
-5.6427398 -4.4587064 -4.7972975
-5.6747975 -4.3006701 -4.9236579
-5.654973 -3.9774311 -5.0171981
-5.6990438 -3.764452 -4.911129
-5.7320561 3.5956578 -4.9810524
-5.6851134 3.7649672 -5.1026864
-5.7051964 4.1219316 -5.0622773
-5.6871786 4.2889633 -4.9445472
-5.6691346 -4.5286117 -4.5918384
-5.7043242 -4.4111218 -4.7231855
-5.5527463 -3.8521826 -4.765183
-5.6699352 -3.6662443 -4.6541691
-5.7327843 -3.4980311 -4.5375009
-5.8261523 2.8167183 -4.5708947
-5.8329811 3.3178039 -4.5999479
-5.6989379 3.530452 -4.7299604
-5.5993991 3.6783433 -4.8470583
-5.8315229 4.2489004 -4.8797874
-5.7063217 4.3911099 -4.7365313
-5.6648674 -4.8045616 -4.2346764
-5.6866093 -4.6661158 -4.3795614
-5.6341863 -3.6139438 -4.4033375
-5.6923947 -3.4469326 -4.3538141
-5.8100176 -3.0741143 -4.4134984
-5.7210684 -2.7957382 -4.3679609
-5.6352415 -2.4609118 -4.4280133
-5.652595 -2.1679571 -4.4379625
-5.6597905 -1.9070717 -4.4468412
-5.6516132 -1.616788 -4.4538317
-5.6613097 -1.2921419 -4.4595985
-5.6326113 -0.98987937 -4.4572105
-5.6508102 -0.69050699 -4.4623432
-5.6422338 -0.37283295 -4.46698
-5.6713076 -0.099273548 -4.4748445
-5.6572013 0.18694265 -4.4747319
-5.6794763 0.52143633 -4.4736085
-5.6614213 0.82784343 -4.4786835
-5.6939955 1.1132388 -4.4952822
-5.6702609 1.4285131 -4.493732
-5.6693501 1.7215133 -4.4927793
-5.6693916 2.0071912 -4.4955063
-5.6785221 2.2962341 -4.5035691
-5.7121468 2.563005 -4.5228977
-5.8117604 2.8691552 -4.473361
-5.7545142 3.269635 -4.4341993
-5.6830554 3.4825115 -4.4489555
-5.7286859 4.5183311 -4.5394592
-5.7004504 4.6523252 -4.401844
-5.6790705 -5.1300945 -3.9462769
-5.67871 -4.9558258 -4.0931106
-5.6092796 -3.4688113 -4.1480632
-5.7802243 3.3459358 -4.234334
-5.6896544 3.5133839 -4.2194309
-5.6816335 3.6681805 -4.1562357
-5.7019916 4.806953 -4.2492585
-5.7091427 4.9871869 -4.1057978
-5.679636 -5.4284153 -3.6603131
-5.6870379 -5.2776885 -3.8090591
-5.7224216 5.1416965 -3.9715552
-5.7243032 5.2929444 -3.830308
-5.6805182 -5.7031927 -3.3449111
-5.6773849 -5.5742683 -3.4990251
-5.7251787 5.4439268 -3.672998
-5.7299986 5.5762725 -3.525049
-5.6848183 -5.9509406 -2.9981966
-5.6862555 -5.8485069 -3.1485858
-5.7310915 5.7217774 -3.3428788
-5.7308326 5.8332338 -3.1942241
-5.6941447 -6.0714941 -2.8057344
-5.729394 5.9880843 -2.9637775
-5.6717424 6.0791631 -2.8143423
-5.6897345 -6.2690539 -2.4473333
-5.696249 -6.1885133 -2.5990903
-5.7361951 6.1663232 -2.6659698
-5.6962304 -6.3868766 -2.2015991
-5.7404394 6.3228526 -2.3648782
-5.6955423 6.3921032 -2.2278662
-5.7036214 -6.5414085 -1.8283017
-5.6986518 -6.481884 -1.9769917
-5.7475767 6.4542623 -2.0732582
-5.7049837 -6.6185188 -1.6072956
-5.7453842 6.5779595 -1.7632422
-5.70156 -6.7134771 -1.2846822
-5.7565427 6.6636939 -1.5073462
-5.7609177 6.7064948 -1.3582946
-5.7081356 -6.8047729 -0.88255787
-5.704113 -6.7770543 -1.0250654
-5.7571282 6.7526145 -1.173376
-5.7110457 -6.8335433 -0.69233918
-5.7584352 6.8092618 -0.86496913
-5.7135992 -6.8592553 -0.38499808
-5.7611456 6.8459077 -0.56216502
-5.7213178 -6.8656693 -0.09188509
-5.7630572 6.858634 -0.26460767
-5.7217941 -6.8457551 0.21030593
-5.7604666 6.8456726 0.03737855
-5.7274303 -6.806673 0.48593116
-5.7275147 -6.7756405 0.6375401
-5.7681265 6.8096781 0.33323646
-5.7363143 -6.7379193 0.80393934
-5.7834578 6.7195525 0.76860714
-5.7778306 6.7569494 0.61648464
-5.7424474 -6.652709 1.1052063
-5.783886 6.6762619 0.93164444
-5.739603 -6.5501361 1.4073427
-5.7900572 6.5800853 1.2369888
-5.7368445 -6.4795794 1.5874398
-5.7453585 -6.4162922 1.7325022
-5.7870431 6.4191809 1.6521552
-5.7863898 6.4802899 1.5055993
-5.7487016 -6.2867789 2.0002201
-5.7899294 6.3346224 1.8409226
-5.7455025 -6.1821723 2.1987498
-5.7601318 -6.0973802 2.3443611
-5.7948394 6.119967 2.2512052
-5.7888041 6.2061143 2.096247
-5.7492018 -5.9461842 2.5847313
-5.7758656 -5.8402963 2.7348602
-5.7965941 5.9980302 2.4548104
-5.7520323 -5.7280264 2.8895228
-5.7973557 5.7680616 2.7872174
-5.7967014 5.8778377 2.6378582
-5.7559776 -5.5782304 3.0766594
-5.7628045 -5.4422011 3.2286055
-5.809855 5.4834728 3.1302731
-5.8023267 5.6192684 2.9755485
-5.7679024 -5.2900996 3.3876188
-5.7745605 -5.1345286 3.5335858
-5.6858535 -3.6508648 3.5307729
-5.8145304 5.182528 3.4326236
-5.8019114 5.337502 3.2855442
-5.7805347 -4.9822106 3.6677511
-5.7748003 -4.8130722 3.8110106
-5.7362266 -3.5813215 3.7953312
-5.769969 -3.3508356 3.864589
-5.7811904 3.4055717 3.7910917
-5.7816563 3.5668678 3.7851665
-5.8085475 4.859386 3.7162397
-5.8035798 5.0337553 3.5682385
-5.7378602 -4.667542 3.9622843
-5.7800407 -4.5257111 4.1048355
-5.750833 -3.5112793 4.1047392
-5.8163133 -3.3387897 4.0744839
-5.8980594 -2.9481573 4.0914259
-5.8581076 -2.686234 4.057126
-5.7455859 -2.3579335 4.0358887
-5.7566361 -2.0596387 4.0367575
-5.7639556 -1.7986355 4.0388107
-5.7559004 -1.5082626 4.0389223
-5.7655692 -1.1835432 4.0362005
-5.7412863 -0.87788785 4.0225716
-5.7625685 -0.57618785 4.0157175
-5.7476835 -0.26247942 4.0193682
-5.7717934 0.0084725171 4.0224524
-5.7593594 0.29534882 4.0157509
-5.7894807 0.61413157 4.0041418
-5.7730069 0.92163336 4.001544
-5.7985506 1.222065 4.0096083
-5.7742677 1.5370239 4.0006771
-5.7722931 1.8296853 3.9920819
-5.773272 2.1156147 3.9859226
-5.7802844 2.4026275 3.9799669
-5.8317986 2.6935565 3.9678009
-5.9176064 2.9815948 4.002058
-5.8359656 3.3798432 4.0119133
-5.7713537 3.5677886 4.0130816
-5.8226824 4.5962873 4.0131283
-5.7930951 4.7120433 3.8719623
-5.7739081 -4.387064 4.322628
-5.7959499 -4.2658391 4.4484901
-5.7481718 -3.7897804 4.4809904
-5.798388 -3.5746069 4.3652496
-5.8607473 -3.3856571 4.2469635
-5.8901744 3.417371 4.1522913
-5.8141999 3.6509545 4.2480268
-5.7803278 3.869797 4.3540077
-5.8358049 4.3291163 4.3820524
-5.8132949 4.4704251 4.2524061
-5.7837214 -4.148232 4.6214361
-5.7906537 -3.8728817 4.6978035
-5.8073139 -3.6603842 4.611042
-5.8667092 3.7337677 4.488266
-5.8263159 3.9340522 4.586091
-5.8137999 4.2189612 4.5259705
-5.7694726 4.3865886 4.4458942
-5.4393907 -4.1876307 -5.0847855
-5.438745 -4.093925 -5.0917015
-5.4962997 3.9095371 -5.1857901
-5.4964128 3.9899685 -5.1856213
-5.3584991 -4.4770136 -4.8114848
-5.3767047 -4.3020105 -4.9222803
-5.3779368 -3.993355 -4.959137
-5.4044509 -3.8086288 -4.8531594
-5.4879127 3.6354804 -4.9119663
-5.4157815 3.802345 -5.026742
-5.4030585 4.1098776 -5.0628839
-5.3924732 4.3108625 -4.9478054
-5.3738317 -4.5662093 -4.6111031
-5.3846254 -4.4258661 -4.7531495
-5.3411021 -3.8945978 -4.7318273
-5.3818498 -3.740711 -4.6151791
-5.4494057 -3.5250587 -4.4878578
-5.4324532 3.6002052 -4.6806517
-5.3646932 3.710716 -4.7823296
-5.4039307 4.4418225 -4.7292395
-5.3289838 4.5667019 -4.5896678
-5.3627772 -4.8205695 -4.2546439
-5.3864694 -4.6960268 -4.3984799
-5.3590736 -3.6585319 -4.3515916
-5.4232063 -3.5016587 -4.3790469
-5.3757162 -2.6870723 -4.3956938
-5.3755755 -2.4725826 -4.3972616
-5.3790908 -2.1623566 -4.402452
-5.3774734 -1.9033607 -4.4064484
-5.3809028 -1.6091088 -4.4123216
-5.3849239 -1.2906557 -4.4147305
-5.3790579 -0.97883207 -4.4173002
-5.3847423 -0.69214189 -4.4210186
-5.386601 -0.38094443 -4.4263563
-5.3782568 -0.094146445 -4.4290915
-5.3822856 0.20527636 -4.43222
-5.3705645 0.51664519 -4.4323754
-5.3734412 0.82554334 -4.4373174
-5.3669658 1.0998489 -4.4407287
-5.3822098 1.429515 -4.4469862
-5.3906703 1.7201213 -4.4518118
-5.391295 2.0093277 -4.454896
-5.3822742 2.3002503 -4.4582529
-5.3722744 2.5362904 -4.4649034
-5.5345569 3.3529322 -4.4981089
-5.4011698 3.5221918 -4.4502134
-5.3097167 3.667834 -4.4242311
-5.4615989 4.5312696 -4.55445
-5.4031157 4.6673775 -4.4237132
-5.3819776 -5.1342282 -3.9477749
-5.3755674 -4.9690351 -4.0955915
-5.2362585 -3.8391728 -4.0581212
-5.312386 -3.6546235 -4.140182
-5.4141617 -3.5098474 -4.1416855
-5.4141088 3.4628248 -4.2292948
-5.4058008 3.6725407 -4.2331829
-5.4155612 4.8209643 -4.2502995
-5.412838 4.9888353 -4.1082749
-5.3926487 -5.435214 -3.6565766
-5.3900027 -5.2850375 -3.807477
-5.4117937 5.1457496 -3.9729753
-5.4292564 5.3051867 -3.8245471
-5.3867025 -5.7084517 -3.3415432
-5.39925 -5.5812163 -3.4938476
-5.4424405 5.4513817 -3.6744189
-5.4324188 5.5828114 -3.527246
-5.4004159 -5.9521885 -3.0002718
-5.3951936 -5.8510766 -3.15028
-5.4358721 5.7303357 -3.342582
-5.4333549 5.8435493 -3.1925302
-5.3977518 -6.0770688 -2.8018293
-5.4350963 5.9964862 -2.9624703
-5.3422418 6.0916047 -2.8088579
-5.3988948 -6.2734389 -2.4462023
-5.3972502 -6.1931615 -2.5989642
-5.4429731 6.1754165 -2.6605217
-5.4001269 -6.3915954 -2.1947012
-5.4337115 6.3251777 -2.370688
-5.4320602 6.3952413 -2.2239709
-5.4110465 -6.5418305 -1.8275354
-5.4021115 -6.48277 -1.978096
-5.4395757 6.4621754 -2.0643837
-5.4032168 -6.6195555 -1.5982409
-5.4468694 6.582201 -1.7569411
-5.4080524 -6.7118812 -1.2831234
-5.4494653 6.6658144 -1.4995211
-5.4593854 6.7061367 -1.3546479
-5.4240518 -6.8020973 -0.87773371
-5.4027896 -6.7751808 -1.0113003
-5.457202 6.7505183 -1.173923
-5.4126945 -6.8279653 -0.69033265
-5.4559546 6.8060164 -0.86238718
-5.4149256 -6.8534069 -0.37957597
-5.4585013 6.8424034 -0.55708766
-5.4157724 -6.8592181 -0.08305335
-5.4603925 6.85463 -0.26232791
-5.4245954 -6.840385 0.21153188
-5.4657583 6.8418465 0.040376425
-5.4312282 -6.8012428 0.48918223
-5.4066639 -6.7712226 0.63181233
-5.4743242 6.806499 0.34213758
-5.4338126 -6.7339296 0.80877948
-5.4632297 6.7189531 0.77745128
-5.4854946 6.7559161 0.62353134
-5.4374871 -6.6514325 1.1092815
-5.4870205 6.6764593 0.94153666
-5.44484 -6.5512419 1.4130127
-5.4944291 6.5834246 1.2401073
-5.4325905 -6.4827895 1.5887916
-5.4463062 -6.4186621 1.7380354
-5.4929223 6.4222555 1.6595232
-5.4908776 6.4846821 1.5094111
-5.4526119 -6.292778 2.0014255
-5.4974222 6.342629 1.8402998
-5.4572058 -6.1850829 2.2049959
-5.4700251 -6.1018009 2.3499801
-5.5133524 6.1242175 2.2599061
-5.4954138 6.208653 2.1111491
-5.462429 -5.9502883 2.5935113
-5.5300107 -5.8449469 2.7415097
-5.5053549 6.0150418 2.4438145
-5.4646325 -5.7321696 2.9000633
-5.5037236 5.7722998 2.797601
-5.4955339 5.8849444 2.6428721
-5.4616041 -5.5816984 3.0870364
-5.475131 -5.4479394 3.2364066
-5.5071955 5.494164 3.1350224
-5.505918 5.6242051 2.9865034
-5.4749651 -5.2953501 3.3942139
-5.476335 -5.1401129 3.5409033
-5.500104 -3.6970809 3.5380085
-5.5119042 5.1907153 3.4423306
-5.5109682 5.34343 3.2953694
-5.4695091 -4.9855409 3.6785219
-5.4658847 -4.8227329 3.8238113
-5.4722795 -3.5770745 3.8291748
-5.5426745 -3.4135621 3.8512781
-5.618372 3.4500372 3.7657588
-5.5003223 3.5304286 3.7755902
-5.5132203 4.8720636 3.733803
-5.505475 5.0414643 3.5818183
-5.4603634 -4.6733079 3.9843528
-5.4778156 -4.5570221 4.1250629
-5.4671431 -3.5702884 4.0940027
-5.4854155 -3.3882368 4.1114435
-5.47895 -2.5795522 4.0148468
-5.4787893 -2.3650925 4.010973
-5.4815664 -2.0546923 4.0078316
-5.4783511 -1.7953718 4.0053358
-5.4821339 -1.5011266 4.003953
-5.4881649 -1.1831059 3.998172
-5.4852715 -0.86880362 3.9920366
-5.4918504 -0.58134067 3.9876912
-5.490325 -0.27206182 3.985491
-5.4779797 0.01252903 3.98195
-5.4832077 0.31374127 3.9775898
-5.4803882 0.62020326 3.9704421
-5.4862227 0.92912531 3.9676874
-5.4703383 1.2048833 3.9631879
-5.4847674 1.5368409 3.9606812
-5.4923906 1.8272603 3.9578044
-5.493885 2.1165991 3.9531615
-5.4855518 2.407649 3.9475186
-5.4760485 2.6437747 3.9432762
-5.5313849 3.4475749 4.039566
-5.49581 3.614078 4.0139236
-5.5219641 4.6200747 4.0405941
-5.4998884 4.7287154 3.908128
-5.4819603 -4.4200535 4.3637133
-5.5105276 -4.2621436 4.481431
-5.4553413 -3.8064797 4.4391937
-5.4975066 -3.647562 4.3421221
-5.5221791 -3.4260166 4.2320385
-5.5391102 3.6936228 4.1930895
-5.4988756 3.8731368 4.3038111
-5.5003686 4.2387729 4.3957777
-5.5101089 4.5090084 4.2609005
-5.4074473 -4.3452625 4.5333033
-5.48738 -4.1715946 4.6235361
-5.4891748 -3.8729379 4.6481781
-5.5644226 -3.7060335 4.5599117
-5.5435085 3.9519289 4.5373516
-5.5129023 4.2227898 4.533309
-5.4934654 4.4080796 4.4626951
-5.0536489 -4.4984846 -4.8258901
-5.0658317 -4.2977428 -4.9207792
-5.08705 -4.0057654 -4.904645
-5.1866207 -3.8392456 -4.7844095
-5.1335983 3.8478615 -4.9806609
-5.0972257 4.1042314 -5.0354733
-5.0883527 4.3393769 -4.9472108
-4.9985881 -4.7448702 -4.4655533
-5.0744028 -4.6156301 -4.6095538
-5.1808701 -4.4269214 -4.7608199
-5.0469928 -3.9178801 -4.6665764
-5.1111507 -3.7888274 -4.5606928
-5.1305299 3.6130435 -4.6140375
-5.101511 3.7666943 -4.7324944
-5.0496006 4.0498137 -4.8540421
-5.1140504 4.4723916 -4.7588501
-5.066123 4.5856819 -4.6292567
-5.0735292 -4.8314285 -4.2858553
-5.1150451 -4.7150631 -4.4220757
-4.9875269 -3.8515768 -4.3354707
-5.087347 -3.7095864 -4.3502617
-5.1793442 -3.5239747 -4.3986201
-5.1970367 -2.6662266 -4.3747382
-5.1204829 -2.4479597 -4.3675499
-5.1004376 -2.1613886 -4.3683615
-5.0943327 -1.8979603 -4.3710365
-5.0905676 -1.6075643 -4.3743634
-5.1253977 -1.2887707 -4.3726044
-5.1122112 -0.9473809 -4.3813262
-5.1006126 -0.68709445 -4.3844833
-5.1002817 -0.38036418 -4.3882437
-5.1198254 -0.090836063 -4.3923702
-5.1132331 0.20771541 -4.395124
-5.0923386 0.52110434 -4.3966293
-5.0874701 0.8172583 -4.3994589
-5.0980473 1.0853313 -4.4034181
-5.1067886 1.4073293 -4.4081545
-5.1059055 1.7287165 -4.4127989
-5.1075692 2.0184171 -4.4166336
-5.1075258 2.3012912 -4.4204531
-5.1040416 2.5580683 -4.4236746
-5.1189404 3.5671618 -4.4396343
-5.0622005 3.6937842 -4.5141401
-5.1986551 4.5500584 -4.5669832
-5.106895 4.7023106 -4.4319401
-5.0958171 -5.1379972 -3.9504404
-5.0867395 -4.9794631 -4.1020474
-5.0637493 -3.879463 -4.0436659
-5.0729728 -3.6303706 -4.1406851
-5.131875 3.5002027 -4.2316122
-5.1280479 4.833683 -4.2501478
-5.1104422 4.9885325 -4.1227069
-5.098115 -5.4394107 -3.6561165
-5.1053476 -5.287653 -3.8083594
-5.125423 5.1461101 -3.9778962
-5.1288595 5.3103728 -3.8265309
-5.0969858 -5.7078757 -3.3460674
-5.0973086 -5.5835676 -3.4958644
-5.1510534 5.4590812 -3.6727777
-5.1264958 5.5868697 -3.5313423
-5.1013122 -5.9588437 -2.9962177
-5.0980496 -5.8559384 -3.1472125
-5.1410356 5.7329249 -3.3505089
-5.1378822 5.8480811 -3.1955218
-5.1037455 -6.0839367 -2.794677
-5.1443315 6.0003514 -2.9641142
-5.128077 6.0919747 -2.8143797
-5.1083493 -6.2745824 -2.4470053
-5.1099005 -6.1931095 -2.6010568
-5.1496315 6.1815991 -2.6561847
-5.1070361 -6.3933172 -2.1915164
-5.1433449 6.3242536 -2.3769951
-5.1443362 6.3957648 -2.2244711
-5.1100845 -6.5395861 -1.829777
-5.113205 -6.4828329 -1.9733727
-5.1500826 6.4665461 -2.0576191
-5.111711 -6.6171665 -1.5959705
-5.1493683 6.5810323 -1.755901
-5.1142006 -6.7099133 -1.2771027
-5.1610184 6.6673789 -1.4859101
-5.1592126 6.7063398 -1.3439796
-5.1442323 -6.797761 -0.85918164
-5.1113172 -6.7717166 -0.99699068
-5.1628742 6.7472415 -1.1658254
-5.1231818 -6.8196774 -0.69115531
-5.0269675 -6.7932525 -0.83366084
-5.1654921 6.8013601 -0.85767853
-5.123898 -6.8441811 -0.38359571
-5.1592236 6.8376904 -0.54824948
-5.1179624 -6.850749 -0.081113577
-5.1619091 6.84901 -0.26247334
-5.122539 -6.8328934 0.20989251
-5.1794009 6.8355937 0.040352821
-5.1433792 -6.7968464 0.47855234
-5.1313267 -6.7685223 0.62369061
-5.1885819 6.8023438 0.34457612
-5.1389866 -6.729569 0.81201673
-5.1694145 6.7200451 0.77084494
-5.1839433 6.7553439 0.61870074
-5.1439514 -6.6482048 1.1144335
-5.1844511 6.6753507 0.94984269
-5.1432476 -6.5512681 1.4114716
-5.1926622 6.5854478 1.243427
-5.1488562 -6.4796658 1.5982163
-5.1526093 -6.4169197 1.7479355
-5.1939926 6.4269276 1.6612809
-5.1927018 6.4885664 1.5118124
-5.1549196 -6.2941117 2.0081675
-5.1982369 6.3458982 1.8469923
-5.1652985 -6.1874008 2.2127035
-5.1719775 -6.1030426 2.3619454
-5.2068853 6.1285539 2.269027
-5.2034593 6.2138743 2.1152961
-5.1732945 -5.9505239 2.6053584
-5.2088227 6.0167661 2.456609
-5.1727219 -5.7388573 2.905268
-5.2083082 5.7770977 2.8059475
-5.2112832 5.8876448 2.6536734
-5.1685123 -5.581388 3.10268
-5.1776962 -5.4466763 3.2499621
-5.2225866 5.5003266 3.142875
-5.2145615 5.6322064 2.9911206
-5.1795564 -5.2945561 3.4079955
-5.1833644 -5.140882 3.5517113
-5.2199144 5.1985798 3.4521401
-5.2150278 5.3500013 3.3043258
-5.1759257 -4.9894733 3.6900537
-5.1756783 -4.8331528 3.8380773
-5.0883918 -3.7620597 3.8125298
-5.1982975 -3.577239 3.8492634
-5.2216182 3.5783923 3.7928083
-5.1325831 3.8521411 3.7112668
-5.2221484 4.8977814 3.7472675
-5.2134252 5.0511913 3.5981462
-5.1657109 -4.6873536 4.0141258
-5.1992559 -4.576529 4.1498508
-5.0782542 -3.7436934 4.1252928
-5.1832771 -3.6251066 4.0973434
-5.217494 -3.3962529 4.0467014
-5.2998018 -2.559191 3.9977572
-5.2230215 -2.3411548 3.9869025
-5.2048311 -2.0552809 3.9810321
-5.1990099 -1.7910687 3.9772627
-5.1958628 -1.4999539 3.9733784
-5.2276788 -1.1822064 3.9624569
-5.2162623 -0.83920932 3.9632556
-5.2048788 -0.57871759 3.9601047
-5.2026548 -0.27330685 3.9553115
-5.219202 0.015097633 3.9511616
-5.2136478 0.31337339 3.9468005
-5.1938648 0.62807435 3.9408243
-5.1921072 0.92454755 3.9364512
-5.2004833 1.190164 3.9329755
-5.2087231 1.513821 3.9292142
-5.2069492 1.8349961 3.9255788
-5.209465 2.1248665 3.9220822
-5.2099099 2.4078062 3.9181507
-5.2064328 2.6646273 3.9148123
-5.3358989 3.4655981 4.0654249
-5.2230339 3.6494181 3.9943502
-5.1722369 3.8120458 4.0441809
-5.2415648 4.6411572 4.0711546
-5.2039313 4.7537274 3.9430697
-5.1842232 -4.4590602 4.3726711
-5.1995707 -4.2671347 4.4989691
-5.1716161 -3.8070946 4.3911114
-5.2426958 -3.6853244 4.2860632
-5.2452364 3.7117367 4.1596155
-5.2177558 3.9027317 4.2657099
-5.2315187 4.1894617 4.3781967
-5.2126184 4.5467515 4.2677708
-5.1505251 4.6788979 4.1341457
-5.1620135 -4.3512158 4.558074
-5.1810536 -4.1697202 4.6225815
-5.2005043 -3.913336 4.6033955
-5.2343469 4.0037847 4.486557
-5.2121043 4.2275915 4.5258942
-5.1949072 4.4335141 4.473526
-4.7537179 -4.5215487 -4.8279085
-4.7668858 -4.3003268 -4.910377
-4.7857361 -4.0495749 -4.8643246
-4.8162203 3.8956001 -4.9461932
-4.7915478 4.1014428 -5.0232654
-4.7948303 4.367065 -4.9527636
-4.7190418 -4.7612982 -4.4989357
-4.7787523 -4.652472 -4.6247768
-4.7154131 -4.1859951 -4.7319698
-4.7731781 -3.9538324 -4.6173487
-4.7947612 -3.7841892 -4.5065899
-4.8266683 3.6044312 -4.5916414
-4.8101344 3.8208725 -4.7143545
-4.7946157 4.0750885 -4.8264866
-4.806654 4.4745383 -4.8056498
-4.7880592 4.6148701 -4.666347
-4.7738037 -4.8559275 -4.2988572
-4.8358979 -4.7234688 -4.4285722
-4.7511997 -3.8813314 -4.3821993
-4.7809749 -3.7495785 -4.3244476
-4.7369232 -2.6707933 -4.3175802
-4.7633681 -2.452147 -4.3236446
-4.7746754 -2.1683958 -4.3291888
-4.7782083 -1.9002553 -4.3336968
-4.7995496 -1.6088823 -4.3410077
-4.7233639 -1.3581723 -4.3371439
-4.7840605 -0.90285921 -4.3485813
-4.7924805 -0.67891741 -4.3497486
-4.7944698 -0.37630337 -4.3529177
-4.7829781 -0.098499373 -4.3535051
-4.7979684 0.2124861 -4.3579512
-4.8060198 0.52335477 -4.3627496
-4.815764 0.81008196 -4.3669009
-4.8094635 1.0885667 -4.3687506
-4.8209324 1.4041946 -4.3722515
-4.7955132 1.6989219 -4.3736916
-4.8090806 2.0303216 -4.3794341
-4.7970839 2.3029406 -4.3809414
-4.7921643 2.5643156 -4.3841734
-4.6833067 2.7878737 -4.3766861
-4.8222089 3.5961201 -4.3991427
-4.7860441 3.7404277 -4.4667668
-4.8044395 4.7486458 -4.4309692
-4.7728519 4.8743343 -4.2883158
-4.7744656 -5.1345329 -3.9632754
-4.7859678 -4.9933681 -4.1098928
-4.8421125 -3.9227302 -4.0697508
-4.772615 -3.6808691 -4.126708
-4.8224363 3.5423622 -4.2326212
-4.753056 3.8135438 -4.1227093
-4.8310375 4.8496146 -4.2555599
-4.8028793 4.9894919 -4.1358871
-4.7782578 -5.4436655 -3.6547616
-4.768518 -5.2915735 -3.8079209
-4.6801972 3.8503702 -3.9464939
-4.8046684 5.1475554 -3.9661949
-4.8148503 5.3241119 -3.8184118
-4.7720294 -5.7115607 -3.3450499
-4.7799392 -5.5859256 -3.4969025
-4.8185883 5.466074 -3.6724658
-4.8195429 5.5984907 -3.5274997
-4.7777967 -5.9592075 -2.9980373
-4.7783403 -5.8585014 -3.1460927
-4.8263788 5.7409191 -3.3499436
-4.8262382 5.8512864 -3.1978436
-4.7824736 -6.0859904 -2.7931824
-4.8272119 6.0053034 -2.9628735
-4.8312716 6.0933032 -2.8160095
-4.7879858 -6.2746663 -2.4466195
-4.7894306 -6.195251 -2.599283
-4.8285708 6.1854596 -2.6519718
-4.7879677 -6.3931012 -2.1871591
-4.8338833 6.3278403 -2.369019
-4.8335476 6.3962255 -2.2190857
-4.7913737 -6.5384092 -1.8228285
-4.7875595 -6.4824238 -1.9653114
-4.8351207 6.4666767 -2.0513737
-4.7944345 -6.6170011 -1.5839539
-4.8426585 6.5780697 -1.7495344
-4.7985001 -6.7027583 -1.2772814
-4.8367205 6.665966 -1.4640718
-4.8740091 6.7044578 -1.3269566
-4.8017712 -6.7638221 -0.98782563
-4.8493996 6.740716 -1.1584896
-4.8137345 -6.8099365 -0.66912293
-4.7720947 -6.7895331 -0.8116945
-4.8555136 6.7951875 -0.84998
-4.8108912 -6.8339248 -0.37703609
-4.8553514 6.8293734 -0.5552063
-4.8115749 -6.8392258 -0.08151269
-4.8595438 6.8405309 -0.25462222
-4.8154988 -6.8222117 0.21776557
-4.8659806 6.8273401 0.036381006
-4.8205891 -6.7916803 0.46824098
-4.804791 -6.7638054 0.6075685
-4.8651738 6.7949734 0.34535766
-4.8247914 -6.7210164 0.8141377
-4.8661947 6.7193661 0.76189995
-4.8774829 6.753159 0.60715413
-4.824616 -6.6414614 1.1152303
-4.8718071 6.6731558 0.95224047
-4.8296928 -6.5451479 1.4186733
-4.8714423 6.5858574 1.2422402
-4.825563 -6.4774785 1.5986297
-4.8312168 -6.4165287 1.7473319
-4.88589 6.4254909 1.6729109
-4.8756461 6.4885283 1.5167553
-4.8330116 -6.2979345 2.0069172
-4.8865132 6.3499513 1.8463819
-4.8382244 -6.1884985 2.2209809
-4.8485765 -6.102633 2.372937
-4.9051967 6.130877 2.274627
-4.894814 6.2162361 2.1189129
-4.8528109 -5.9562392 2.605675
-4.8981018 6.020081 2.4637668
-4.8357415 -5.8533282 2.7609932
-4.8613873 -5.7383356 2.9163344
-4.9014025 5.7819943 2.8138783
-4.8940759 5.891737 2.6628006
-4.8637533 -5.5883884 3.1064603
-4.8611727 -5.4532032 3.2563589
-4.8944116 5.5045481 3.1545823
-4.8956442 5.6343055 3.0032794
-4.8604684 -5.3005171 3.4144294
-4.8686066 -5.1446733 3.5619471
-4.9335275 3.922137 3.501807
-4.9080029 5.2095008 3.4600985
-4.9038405 5.3596773 3.3088324
-4.866714 -4.9941258 3.709698
-4.879477 -4.8546281 3.8535287
-4.8780279 -3.8137753 3.8438847
-4.8609819 -3.6158097 3.850601
-4.9056025 3.6441815 3.7971504
-4.8703728 3.8827212 3.715132
-4.9204121 4.9244022 3.7661941
-4.9049196 5.0585408 3.6189992
-4.8690596 -4.7054148 4.0591335
-4.9042234 -4.5967069 4.1833544
-4.8579421 -3.7856705 4.1235037
-4.9085436 -3.6519783 4.0493355
-4.8384128 -2.5650728 3.952162
-4.864933 -2.3463519 3.9519422
-4.879283 -2.0610452 3.9502175
-4.8830285 -1.7928886 3.9477899
-4.9077396 -1.5013698 3.9473698
-4.8249402 -1.252378 3.9384296
-4.8857441 -0.79693925 3.9367807
-4.8941002 -0.57304454 3.931977
-4.8961067 -0.27044928 3.9273374
-4.884532 0.0072817951 3.9211943
-4.8983254 0.31715679 3.9173114
-4.9107375 0.63313597 3.9143026
-4.9197502 0.91929805 3.9108527
-4.9097948 1.1952597 3.9052594
-4.9224787 1.5099515 3.9005272
-4.8970137 1.8046287 3.8950465
-4.9106169 2.1360624 3.8919623
-4.8985634 2.4086368 3.8868015
-4.8936386 2.6700075 3.8834751
-4.7845607 2.8933356 3.8729475
-4.9526658 3.7034857 3.9410532
-4.8897996 3.871413 4.0162802
-5.0057716 4.6608148 4.0954189
-4.9100704 4.7849731 3.9735663
-4.7782426 -4.6370435 4.2507591
-4.8782997 -4.4911222 4.3849821
-4.8822761 -4.2530961 4.5144939
-4.8851752 -3.8606303 4.3811178
-5.0027337 -3.7063453 4.2468491
-5.0396199 3.7458894 4.1435385
-4.9199219 3.9659879 4.2692661
-4.8851638 4.1643 4.3643837
-4.9202824 4.5693483 4.2963953
-4.8796215 4.6994443 4.1749744
-4.8719354 -4.370492 4.5725098
-4.8812714 -4.1735544 4.6044626
-4.9029903 -3.9667795 4.5751057
-4.9598398 4.0453057 4.4575863
-4.9091043 4.2291956 4.5009317
-4.9005337 4.4535947 4.4797297
-4.4599266 -4.5351143 -4.8295689
-4.4741011 -4.2932878 -4.8898859
-4.5042682 -4.0963411 -4.822093
-4.5728731 3.9322913 -4.9034357
-4.4992061 4.1014619 -4.984045
-4.4903517 4.3899264 -4.959096
-4.4577436 -4.781652 -4.5299082
-4.4783497 -4.6691976 -4.6648026
-4.461318 -4.2257586 -4.7008543
-4.483592 -4.004849 -4.5920982
-4.5171151 -3.8241553 -4.4773893
-4.6225529 3.6574736 -4.5777836
-4.5098906 3.8709157 -4.6931386
-4.4987335 4.0636778 -4.790576
-4.5159769 4.4631553 -4.8361187
-4.5003309 4.6420345 -4.6996059
-4.4716892 -4.8880162 -4.3047304
-4.4768028 -3.9107013 -4.3657327
-4.4914327 -3.7712121 -4.3268967
-4.4957166 -2.6751325 -4.2884216
-4.480195 -2.4613554 -4.289669
-4.4731927 -2.1748564 -4.293046
-4.4836845 -1.9108083 -4.2987614
-4.4779458 -1.5941256 -4.3040018
-4.499054 -1.2879895 -4.3120003
-4.4825497 -0.96682298 -4.3142948
-4.4956627 -0.68116915 -4.3171463
-4.504364 -0.39298135 -4.3217478
-4.4852414 -0.093549058 -4.3234005
-4.4789629 0.20676942 -4.3259892
-4.5024338 0.52215278 -4.3310256
-4.4946342 0.81357312 -4.3327341
-4.5051394 1.0823027 -4.3364792
-4.5029287 1.4121519 -4.3387599
-4.5077357 1.7225385 -4.3410325
-4.5046101 2.0353718 -4.3441072
-4.5093465 2.2972877 -4.3483372
-4.5039625 2.5881031 -4.3528757
-4.4919109 2.8114085 -4.3572979
-4.5192204 3.6273749 -4.371285
-4.4910545 3.779815 -4.4478607
-4.5061874 4.774406 -4.4442329
-4.4835658 4.8818436 -4.3014045
-4.4706707 -5.1390538 -3.971833
-4.4888287 -5.0110102 -4.1166029
-4.3853502 -3.9364145 -4.0894928
-4.4779186 -3.7059469 -4.1342936
-4.4981861 3.5938561 -4.2164345
-4.5008864 3.8574932 -4.1512175
-4.4525042 4.7887363 -4.2013407
-4.506443 5.0081077 -4.1351109
-4.3948684 5.1686134 -3.9815507
-4.4825754 -5.4439712 -3.6567109
-4.4891057 -5.2933578 -3.8091671
-4.527041 3.8867524 -3.9030812
-4.5546222 5.1546388 -3.9696059
-4.5140014 5.3266912 -3.8169999
-4.4865594 -5.7144427 -3.3427043
-4.4814496 -5.5843334 -3.5004301
-4.5262752 5.4701014 -3.6662755
-4.52073 5.6054397 -3.5224519
-4.4758635 -5.9559107 -3.0004072
-4.487484 -5.8587961 -3.1460299
-4.5278468 5.7453589 -3.3453798
-4.5288787 5.8530622 -3.1976774
-4.4838047 -6.0843425 -2.7928667
-4.5301151 6.0026321 -2.9670091
-4.5372801 6.0946479 -2.8121796
-4.4926658 -6.2697606 -2.4498596
-4.4933057 -6.1940422 -2.5969477
-4.531075 6.1856952 -2.6484106
-4.48807 -6.3895802 -2.1861966
-4.5239382 6.3289309 -2.3584042
-4.570015 6.3966141 -2.2085874
-4.4878559 -6.5323539 -1.8214784
-4.482039 -6.4788218 -1.9624362
-4.5261488 6.4627032 -2.045486
-4.4892569 -6.6106811 -1.5796477
-4.5342784 6.5711536 -1.7454996
-4.4885798 -6.6920218 -1.2777731
-4.5372643 6.6592584 -1.4509606
-4.6276422 6.7036538 -1.3356867
-4.5024505 -6.7548895 -0.97686565
-4.4908977 6.6985226 -1.2876291
-4.5468225 6.7362528 -1.1355646
-4.5064654 -6.8032179 -0.64252496
-4.4898243 -6.78441 -0.7705704
-4.5526104 6.7872286 -0.84528923
-4.5122008 -6.8228049 -0.36924982
-4.5586472 6.8195682 -0.55036426
-4.5153627 -6.8261456 -0.077180624
-4.5641332 6.8292952 -0.25475407
-4.5098572 -6.8102636 0.21943545
-4.5641704 6.8176351 0.038071156
-4.5277948 -6.7848492 0.44483566
-4.5050154 -6.7608595 0.5794785
-4.5648246 6.784771 0.3597672
-4.5126405 -6.7110014 0.81785607
-4.5613298 6.7161317 0.75064039
-4.5719967 6.7467475 0.60632539
-4.5199299 -6.6334949 1.1149614
-4.5700827 6.6708965 0.94727874
-4.5266676 -6.5381904 1.4184186
-4.5678282 6.5810065 1.2496648
-4.5320444 -6.4730701 1.6000144
-4.5307264 -6.4137959 1.7452729
-4.5695629 6.4226127 1.6776292
-4.5704379 6.4831958 1.5286539
-4.5366211 -6.2916055 2.0198481
-4.5806346 6.3415885 1.8647339
-4.5516124 -6.1845179 2.2312496
-4.5551147 -6.1032801 2.3737042
-4.5894494 6.1293302 2.2798083
-4.5885921 6.2121511 2.1304624
-4.5535955 -5.9589453 2.6068947
-4.5977144 6.0215316 2.4689825
-4.5355511 -5.8532038 2.7638752
-4.5608883 -5.7415485 2.9186623
-4.6032357 5.7873826 2.817888
-4.5984764 5.8927794 2.671685
-4.5583997 -5.5908194 3.1127498
-4.5677505 -5.4546723 3.2656796
-4.6036959 5.5087628 3.1622794
-4.5964227 5.6419868 3.0069044
-4.5616784 -5.3054996 3.4193461
-4.5708709 -5.1575112 3.5617278
-4.4879284 -3.9051988 3.5976799
-4.5210419 -3.6627553 3.623831
-4.5889559 3.7525439 3.5300267
-4.5149851 3.8576725 3.5204995
-4.6039395 5.208148 3.4710448
-4.5988178 5.362021 3.3193605
-4.5676146 -5.0039277 3.7195489
-4.5807862 -4.8686376 3.870538
-4.5481253 -3.8087313 3.8584073
-4.5805693 -3.6718717 3.8099902
-4.4663029 -2.5534022 3.9164526
-4.46701 -2.355696 3.9144585
-4.4594522 -2.0777171 3.9106572
-4.4560318 -1.8168255 3.908077
-4.4438505 -1.5475124 3.9058211
-4.4622784 -0.83520699 3.8973014
-4.4520521 0.33226681 3.8824451
-4.4663596 0.63057411 3.878329
-4.4729948 0.91577208 3.8739545
-4.4620533 1.2099124 3.8688414
-4.4775629 1.5440676 3.8642032
-4.4848223 1.835524 3.8596289
-4.4919519 2.1365781 3.8549531
-4.4877739 2.406832 3.8517067
-4.4836235 2.6824539 3.8487833
-4.4656258 2.9143202 3.8476412
-4.6337633 3.7193882 3.7765262
-4.588697 3.8740432 3.7178195
-4.6225958 4.9422593 3.786782
-4.6002774 5.0612283 3.6378667
-4.5748768 -4.7288685 4.0923576
-4.6415749 -4.6144962 4.2169447
-4.583231 -3.8396204 4.1079721
-4.6018138 -3.6918967 3.9822352
-4.6255093 -2.5737875 3.9319007
-4.6059093 -2.3564718 3.9275939
-4.5966763 -2.0682805 3.9235461
-4.5983768 -1.8045447 3.9213841
-4.5879793 -1.4850714 3.9181292
-4.6000538 -1.1827891 3.9169924
-4.5848885 -0.86219561 3.9116547
-4.5951176 -0.57640529 3.906584
-4.6042662 -0.28808796 3.9036262
-4.5861554 0.011554018 3.898124
-4.58776 0.31058013 3.8938711
-4.6085691 0.62841463 3.8900549
-4.6143708 0.91808105 3.885587
-4.6218185 1.1851249 3.8818495
-4.6328583 1.5109402 3.8769801
-4.6425581 1.825282 3.8713877
-4.6436553 2.1415675 3.8670657
-4.6517177 2.4006803 3.8647325
-4.6377001 2.6959674 3.8613465
-4.6108966 2.9167285 3.8590996
-4.6670618 3.7481642 3.8597057
-4.6024885 3.9365551 3.9962695
-4.61448 4.8355803 3.9782779
-4.5412779 -4.6507707 4.2866373
-4.581933 -4.5024495 4.4120665
-4.5655279 -4.1448932 4.4791155
-4.591877 -3.933392 4.3888588
-4.6277905 4.021112 4.2592125
-4.5916214 4.1497684 4.3435173
-4.6187239 4.571135 4.3370266
-4.6047397 4.7273116 4.2023077
-4.5765805 -4.3793406 4.574028
-4.5900087 -4.1673112 4.5832949
-4.6785393 -4.0009031 4.5483313
-4.6285529 4.2443366 4.4738016
-4.6241369 4.459394 4.4725676
-4.1663275 -4.5519571 -4.8223462
-4.1727858 -4.3013964 -4.852623
-4.2677231 -4.1240444 -4.7850647
-4.2095256 4.1296105 -4.9510555
-4.1974969 4.3935804 -4.966547
-4.1687808 4.5781612 -4.8799324
-4.1717 -4.801753 -4.5480719
-4.1761966 -4.6729445 -4.6889582
-4.1555538 -4.2325912 -4.6656199
-4.188508 -4.0478239 -4.569272
-4.2691813 -3.8385279 -4.4770265
-4.2251139 3.9052131 -4.6401539
-4.1826982 4.0460196 -4.753232
-4.1967163 4.4950399 -4.8362303
-4.1976776 4.6650343 -4.7013044
-4.180963 -4.9264903 -4.2960892
-4.1725121 -3.93752 -4.3607202
-4.1865549 -3.7894208 -4.3275747
-4.1316919 -2.6899023 -4.2507439
-4.1973543 -2.4737768 -4.2574959
-4.1924 -2.1938081 -4.2596149
-4.1964598 -1.9308048 -4.264195
-4.1769724 -1.5700899 -4.2685728
-4.1612964 -1.2834315 -4.270874
-4.1800175 -0.9667362 -4.2781157
-4.1948671 -0.67713761 -4.2839918
-4.2078438 -0.39008009 -4.2899742
-4.1942997 -0.075149849 -4.2935491
-4.1921749 0.20217784 -4.2970304
-4.1943398 0.52732384 -4.3002319
-4.1977692 0.81403172 -4.3035812
-4.2140026 1.104682 -4.3068576
-4.0731874 1.435348 -4.2957268
-4.1996832 1.7517983 -4.3125896
-4.2010345 2.0556085 -4.3149052
-4.2074523 2.3163259 -4.3177528
-4.1934338 2.5950906 -4.3204594
-4.1858196 2.8042336 -4.3243656
-4.1825948 3.6376474 -4.4061346
-4.1920767 3.8077347 -4.4511471
-4.2172356 4.7951193 -4.4483323
-4.2064924 4.8904819 -4.3136349
-4.1865869 -5.1420555 -3.9868178
-4.2232866 -5.0243144 -4.132359
-4.173636 -3.9654007 -4.0995007
-4.2133808 -3.7603357 -4.1120105
-4.2325945 3.6290057 -4.2141013
-4.214397 3.8457887 -4.1820145
-4.1944914 4.8070736 -4.1910367
-4.2257562 5.0281053 -4.1348991
-4.1955738 5.1713796 -3.9832082
-4.1855679 -5.4391742 -3.6631367
-4.1834354 -5.2930999 -3.8139582
-4.2630911 5.1632118 -3.9651687
-4.217133 5.3244634 -3.8246355
-4.2733078 5.4726243 -3.6866753
-4.187881 -5.7164292 -3.3381133
-4.1963434 -5.5848169 -3.4988537
-4.2264471 5.6052136 -3.5226979
-4.1888967 -5.9551387 -2.9981427
-4.1925454 -5.8557177 -3.148489
-4.2347383 5.746963 -3.3413849
-4.2313271 5.8539624 -3.1939709
-4.1919899 -6.0854402 -2.7848561
-4.2356596 6.0053387 -2.9613495
-4.2360926 6.0944262 -2.8096228
-4.2000675 -6.268918 -2.4388506
-4.1865597 -6.1917939 -2.5914574
-4.2404337 6.1863956 -2.6408114
-4.1975598 -6.3851147 -2.1806369
-4.2304258 6.3296342 -2.3486354
-4.2290154 6.3953533 -2.2008858
-4.2060475 -6.5290837 -1.8110182
-4.1997247 -6.4748411 -1.9546922
